# .PCD v0.7 - Point Cloud Data file format
VERSION 0.7
FIELDS x y z rgb
SIZE 4 4 4 4
TYPE F F F U
COUNT 1 1 1 1
WIDTH 1194
HEIGHT 1
VIEWPOINT 0 0 0 1 0 0 0
POINTS 1194
DATA ascii
-1.4032576 0.014764419 1.0740366 11573146
-1.3976181 0.018537352 1.0722294 12627878
-1.3968794 0.02174565 1.0722414 12693675
-3.1059244 0.039430939 1.0764558 9668500
-3.1126564 0.045282189 1.0708358 9799822
-3.1092904 0.042356566 1.0736458 9734032
-1.8510625 0.048634712 1.0741867 14470600
-1.8460761 0.040149521 1.0764121 15257246
-3.2451339 0.39652249 1.0758492 9075073
-3.3205044 0.40102506 1.0784932 9075067
-3.2459612 0.40411907 1.0744565 9074563
-3.3495734 0.49750477 1.0770013 8811902
-3.3945348 0.51317859 1.0721505 8745855
-3.3918772 0.52390224 1.0730388 8615030
-3.3726544 0.64345396 1.075178 8548730
-3.3676493 0.64265817 1.0789937 8548987
-3.4554532 0.66589099 1.0739543 8352378
-3.4881225 0.77612323 1.0711271 8351863
-3.5201986 0.85082906 1.0723681 8220022
-3.4665496 0.91784996 1.0727562 7757678
-3.5405419 0.96788687 1.0790416 852997
-3.3551936 1.0499557 1.0780097 5979175
-3.3624992 1.0563055 1.071911 5913621
-3.3574514 1.0555029 1.0757592 5913889
-3.3557014 1.0647365 1.0761224 5716518
-3.3218288 1.0649297 1.0700787 5651245
-3.3172512 1.0680602 1.0731745 5913131
-3.3126736 1.0711907 1.0762702 5913386
-3.309907 1.0758952 1.0778543 5913640
-3.2763205 1.0789583 1.0723059 6241575
-3.3071401 1.0805998 1.0794382 6110503
-3.2767446 1.0828521 1.071592 6044712
-2.3317552 1.0877265 1.0749536 6043424
-2.3262255 1.0864463 1.0768428 6043418
-3.2748489 1.0953054 1.0717351 5913134
-2.3308587 1.0916203 1.074968 6174252
-2.3248808 1.0922871 1.0768645 6173980
-3.2743254 1.1054261 1.0710928 5847595
-3.2693613 1.1046369 1.0748769 6045738
-2.3323038 1.1022083 1.0737447 5846545
0.45738077 -0.13589874 1.0849333 6049097
0.53344744 -0.13798937 1.0862249 6508101
-1.4130695 -7.5638061e-05 1.0856032 10790828
-1.4176691 0.00098921603 1.0840317 9404281
-1.4007232 0.011628766 1.080143 12034458
-1.8244774 0.024152989 1.0845743 13811099
-3.2182186 0.1947242 1.0877359 9337988
-3.2502422 0.29780108 1.0821145 9141119
-3.2389536 0.39802825 1.0803065 9009284
-3.3177831 0.40565225 1.0800512 9009525
-3.3137016 0.41259301 1.0823882 8943741
-3.2371047 0.41017592 1.0804462 8943747
-3.2581251 0.47142544 1.0875535 8812416
-3.3293192 0.55040586 1.0867131 8615553
-3.3255281 0.57531273 1.0869994 8681088
-3.4023685 0.61775208 1.0869279 8418424
-3.4078479 0.62251443 1.0823538 8418164
-3.399477 0.63674825 1.0871463 8418173
-3.4370337 0.6498813 1.0893312 8417914
-3.4444017 0.65628517 1.0831804 8483708
-3.3508487 0.69914752 1.0857625 8548729
-3.502774 0.82587367 1.0879155 8286321
-3.5033295 0.83616716 1.0864505 8351091
-3.4586515 0.84533548 1.0860505 8285298
-3.4499292 0.88881528 1.0881201 9534838
-3.4536457 0.89204538 1.0850177 9272951
-3.5424056 0.90640807 1.0839262 8022901
-3.537179 0.90557706 1.0879104 7695223
-3.5358484 0.91431838 1.0880109 7760504
-3.5389652 0.92197627 1.084904 8350583
-3.5320845 0.9531129 1.0868593 1385523
-3.5291955 0.95802528 1.0885134 1114632
-3.5332754 0.96404558 1.084855 721927
-3.5376527 0.9727993 1.0806956 394509
-3.5271997 0.97113729 1.0886641 591121
-3.4726667 1.037612 1.0887662 5452317
-3.4335353 1.0472007 1.084185 5847337
-3.4263952 1.0434263 1.0898974 5782055
-3.3515408 1.0467809 1.0810591 6110247
-3.3464928 1.0459783 1.0849073 6111272
-3.4309893 1.0547135 1.0853179 6043687
-3.4272728 1.0514834 1.0884203 5912621
-3.3487506 1.0515255 1.0826566 6176298
-3.3793769 1.0697758 1.0894898 5650987
-3.3436012 1.0649745 1.0851257 5847596
-3.3026628 1.069599 1.0839015 5913133
-3.299041 1.066451 1.0869251 5914405
-3.3375895 1.0705041 1.0890465 6109997
-3.3049016 1.0750995 1.0816698 6110248
-3.2977667 1.0748224 1.0870214 6177058
-3.3007517 1.0821562 1.0840459 6569511
-3.294363 1.0837126 1.0886534 6110760
-2.3447967 1.0946399 1.0828681 6043168
-2.3332222 1.094023 1.0866759 6043159
-2.3295143 1.0931646 1.0879428 5847319
-2.2561681 1.0955788 1.086328 5582873
-2.3434439 1.1005147 1.0828899 6174747
-2.2539234 1.1025345 1.0865631 5451280
0.45817357 -0.13503242 1.0921 6182224
0.4649289 -0.13167515 1.0906 5326930
0.1520133 -0.1248484 1.0956 5390405
0.14932427 -0.11964842 1.0966001 7765851
0.15144534 -0.11964842 1.0966001 9406822
-1.426156 -0.0064539909 1.0955027 6237550
-1.8143369 0.0073227324 1.099609 13086040
-1.8127257 0.014320212 1.0996351 14403771
-3.1169949 0.027614009 1.097193 9733517
0.11930182 0.039632406 1.0936 786947
0.12264273 0.038627077 1.0951 655635
0.11615644 0.045243051 1.0938145 459524
0.12281072 0.041866321 1.0966001 393986
0.11385868 0.050160408 1.0921 459524
-2.0150235 0.10309614 1.0999709 16056058
-3.2134156 0.19396056 1.0913972 9403266
-3.1681461 0.20535132 1.0962189 9207177
-3.2938118 0.43725979 1.0947096 9008259
-3.2493916 0.44996741 1.0962596 8943236
-3.3932366 0.60981488 1.0945513 8680566
-3.3063214 0.60797256 1.0979958 8483192
-3.3968894 0.61298978 1.091502 8549752
-3.3121336 0.61654955 1.0927839 8745337
-3.3035774 0.61263829 1.0995667 8417397
-3.3963566 0.6232816 1.0908488 8615546
-3.3885186 0.62722361 1.0962944 9007735
-3.3116097 0.62667018 1.0921416 9139066
-3.3048499 0.62431991 1.0974251 8810615
-3.3926027 0.63435829 1.092519 8614518
-3.3861599 0.63592798 1.0971659 8614517
-3.4333496 0.64667928 1.0924066 8352380
-3.3824055 0.64700466 1.0988362 8352378
-3.4320536 0.65519398 1.0925044 8482681
-3.4277217 0.6562494 1.0956287 8614010
-3.3849509 0.65519178 1.0961016 8221050
-3.4729977 0.66815007 1.0934322 8549246
-3.4692812 0.66492003 1.0965346 8614522
-3.4253426 0.66502804 1.0965077 8482939
-3.3827357 0.66521603 1.0967312 8679547
-3.3795142 0.66600084 1.0990546 8680058
-3.3374169 0.66614562 1.0991523 8745858
-3.4767139 0.67138022 1.0903298 8483452
-3.4215565 0.67619908 1.0981922 8482432
-3.3872511 0.67631042 1.0922298 8548478
-3.3771551 0.67470527 1.0999261 8483452
-3.3449459 0.67505926 1.0926253 8483199
-3.3355055 0.67870271 1.0992967 8745339
-3.4647739 0.68531704 1.0978155 8745076
-3.383497 0.68738717 1.0939002 8548982
-3.3441327 0.68264651 1.0924575 8483706
-3.3384902 0.68603641 1.0963211 8483193
-3.4727917 0.69714862 1.0906261 8417913
-3.4657974 0.69471711 1.0960922 8614522
-3.4186404 0.6953572 1.0984125 8745343
-3.3825331 0.69371927 1.0939729 8549240
-3.3782377 0.69476575 1.0970708 8483449
-3.3422213 0.69520366 1.0926018 8352126
-3.3350861 0.69492668 1.0979533 8417913
-3.4699528 0.7019757 1.0922513 8548727
-3.382432 0.70797086 1.0925938 8483188
-3.3741624 0.70795316 1.0987654 8483193
-3.3334937 0.70539093 1.0980736 8418423
-3.4171314 0.71212268 1.0978271 8417660
-3.3814681 0.7143029 1.0926666 8417907
-3.3778152 0.711128 1.095716 8417645
-3.4617724 0.73498487 1.0949855 8548221
-3.4640694 0.74062848 1.0926956 8482942
-3.4950509 0.80689788 1.0956146 8286326
-3.448586 0.81470388 1.0966866 8547956
-3.4387803 0.87912506 1.0974272 9140857
-3.5238371 0.9088276 1.0975329 8548218
-3.5314012 0.91540194 1.0912185 8482170
-3.522078 0.95555067 1.0940762 853004
-3.5168514 0.95471972 1.0980604 722190
-3.5248623 0.9653939 1.0909944 787727
-3.5177445 0.96291935 1.0965571 656915
-3.5626957 0.97614509 1.0957196 197644
-3.5224199 0.97440618 1.0918968 722191
-3.5583239 0.98357928 1.0982226 590865
-3.5116525 1.0170113 1.0955814 2425625
-3.5139899 1.0227547 1.0932512 3281427
-3.5058746 1.026836 1.0988895 4860425
-3.4717815 1.0294846 1.0902562 5386520
-3.4180851 1.028909 1.0975792 5716494
-3.3713434 1.026639 1.0998865 6043925
-3.336067 1.0261618 1.0947086 6241306
-3.3296237 1.0277315 1.0993555 6307360
-3.5067673 1.0350356 1.0973862 5123089
-3.4689181 1.0343537 1.0918956 5518111
-3.4152462 1.033736 1.0992045 5716758
-3.3722131 1.034626 1.0984223 6175239
-3.333708 1.0348661 1.0955801 6242084
-3.4650655 1.0457211 1.0936097 5715751
-3.4580107 1.0432684 1.0991235 5716009
-3.3702691 1.047398 1.098569 6307876
-3.422576 1.0546955 1.0915966 5912111
-3.4144554 1.0573632 1.0973831 5846572
-3.4215953 1.0611376 1.0916708 5977655
-3.4150403 1.0627346 1.0963984 5912359
-3.3738508 1.0649729 1.0941029 5913645
-3.368325 1.0601699 1.0987159 6111018
-3.3321104 1.0657417 1.0936207 5979182
-3.3259888 1.0652007 1.0982432 5848617
-3.332973 1.0736611 1.0921687 5978930
-2.2848291 1.0891664 1.0901114 5976366
-2.2738199 1.0948205 1.0932891 6041642
-2.2682905 1.0935403 1.0951785 6108188
-1.4236957 -0.0077643744 1.1006118 8343375
-3.1034212 0.015816228 1.1085243 9667471
-3.072264 0.01017478 1.1045555 9995662
-3.0696929 0.014546924 1.1060276 9799051
-3.1119049 0.023189841 1.1014422 9667726
0.12264232 0.045013338 1.1008 328708
0.11795807 0.051626667 1.1008 590595
0.12008727 0.051626667 1.1008 721667
-3.1618233 0.11864189 1.1097865 9470344
-3.1600037 0.1305961 1.109924 9863310
-3.2340357 0.22181848 1.1019614 9141636
-3.2282691 0.22712249 1.1057224 9271937
-3.2321868 0.23396623 1.102101 9076100
-3.1856618 0.28580636 1.1027292 9206918
-3.1847448 0.29183102 1.1027985 9141380
-3.1785183 0.30688411 1.1059076 9206661
-3.1716888 0.34528887 1.1070831 9076098
-3.1786397 0.35133037 1.1012803 9075844
-3.2063971 0.39036369 1.1053789 9075078
-3.2688019 0.48894164 1.1080942 8877192
-3.3420427 0.52798259 1.1098032 8681340
-3.3008337 0.61730397 1.1011376 8351854
-3.2958698 0.6165148 1.1049217 8611970
-3.2974579 0.62612081 1.1027561 9004144
-3.3728421 0.6351077 1.1071856 8615292
-3.3276069 0.6362918 1.1095184 8483449
-3.3773577 0.64620215 1.1026844 8483453
-3.3270788 0.64649665 1.1088707 8810866
-3.4212236 0.65783256 1.1003152 8548731
-3.3749986 0.65490651 1.1035559 8483450
-3.3293176 0.65199691 1.1066391 8680559
-3.4153054 0.66474032 1.1040255 8417660
-3.3744659 0.66519833 1.1029027 8548987
-3.3680229 0.66676807 1.1075495 8287361
-3.4607651 0.67940128 1.1014103 8613497
-3.458468 0.67375767 1.1037002 8548221
-3.4161758 0.67272729 1.1025614 8482941
-3.4099677 0.67697281 1.1067597 8548988
-3.365664 0.67547238 1.1084211 8745350
-3.3318834 0.67555469 1.1023203 9007225
-3.4557412 0.68476075 1.1046115 8482173
-3.4142313 0.68549937 1.102708 8548479
-3.4057465 0.68415034 1.1091762 8482937
-3.3752275 0.68736947 1.1000717 8483449
-3.3327389 0.68340725 1.1008806 8614264
-3.3295445 0.6841855 1.1031845 8679544
-3.4588039 0.69228548 1.1015584 8548214
-3.4153914 0.69614869 1.1007557 8679804
-3.3724372 0.69211411 1.1016692 8417914
-3.3308272 0.69596428 1.101025 8614772
-3.3258221 0.6951685 1.1048405 8614509
-3.4596815 0.70034271 1.1000813 8548732
-3.4130125 0.70492721 1.1016347 8548474
-3.4097633 0.70571882 1.1039779 8548728
-3.3719049 0.70240593 1.101016 8417667
-3.3658929 0.70793533 1.104937 8221311
-3.3280606 0.70066881 1.102609 8549232
-3.364929 0.71426743 1.1050098 8352637
-3.3535655 0.76174909 1.1086415 8483434
-3.4425728 0.80583024 1.1020788 8416886
-3.5220509 0.89242834 1.1005394 8350587
-3.5079479 0.93584597 1.1066298 590619
-3.5120716 0.95798862 1.1012931 656915
-3.4965241 1.0038625 1.1082104 2689045
-3.3640773 1.005862 1.1074281 5912608
-3.4501746 1.0180627 1.1075426 5584413
-3.4134912 1.0176216 1.1021588 5716254
-3.4050779 1.0176036 1.1084375 5847312
-3.3704734 1.018652 1.1013508 5978907
-3.3633955 1.0149103 1.1070133 5978652
-3.5373652 1.0290222 1.1092211 4465169
-3.4992034 1.0284613 1.1037006 5386516
-3.4539235 1.0213209 1.1044132 5584412
-3.4473112 1.0229318 1.109182 5650465
-3.4125106 1.0240638 1.1022329 5716502
-3.4059553 1.0256609 1.1069605 5847578
-3.3644104 1.0242286 1.1053052 6109719
-3.5029855 1.0317485 1.1005434 5319952
-3.4963145 1.0333737 1.1053547 5452829
-3.4490817 1.0391865 1.106202 5715737
-3.4119687 1.0345346 1.1015682 5716508
-3.4052675 1.0347887 1.1065422 5912859
-3.3689642 1.0354176 1.1007655 6241040
-3.4924278 1.0448422 1.107084 5584170
-3.4447865 1.0464902 1.1086612 5782301
-3.4050679 1.0453138 1.1056167 6175003
-3.3651781 1.0465885 1.1024499 6177059
-3.4456716 1.0546174 1.1071711 5781539
-3.4104464 1.0514474 1.1009779 5912614
-3.4057496 1.0546594 1.1041543 6174501
-3.364351 1.0543057 1.1022793 6111530
-3.3566248 1.0548215 1.107991 6045739
-3.3633449 1.0654827 1.1018893 6044458
-3.3571711 1.0649372 1.1065512 5979433
-3.4526227 1.0716958 1.100242 6043442
-3.4478846 1.0749358 1.103446 5912614
-3.3210506 1.0704685 1.1013896 5914398
-3.4468956 1.081434 1.1035208 5979421
0.59168494 -0.080585346 1.1148 5650500
0.59203196 -0.073467262 1.1161333 5251633
-1.4708862 -0.060624115 1.1176945 2104354
-1.4661682 -0.061716415 1.1193066 2104874
0.59257728 -0.065046147 1.1182287 5322552
-1.4738957 -0.056427944 1.1164173 2037532
-1.4348916 -0.020452047 1.1170558 10398873
0.014878375 -0.021172559 1.1148 6304535
-1.4341305 -0.017146688 1.1170682 8478050
-3.0587997 -0.00152769 1.1157954 9799309
-3.0603895 0.01306775 1.1131195 9667980
-3.0578184 0.017439894 1.1145916 9667984
-2.0859091 0.084436812 1.114334 2955540
-3.1591895 0.12312052 1.1112945 9470087
-3.2758753 0.37621999 1.1143222 9075330
-3.1973293 0.38477471 1.1127148 9009533
-3.1897051 0.38273314 1.1186113 8878714
-3.3691893 0.63193285 1.110235 8746364
-3.3248403 0.64099634 1.1111023 8482423
-3.358891 0.65883082 1.1151731 8549749
-3.3625438 0.66200572 1.1121236 8353403
-3.3563883 0.66621524 1.1162865 8615029
-3.3606162 0.67466986 1.1122693 9335166
-3.3555682 0.67386734 1.1161174 8810872
-3.3976374 0.71687204 1.1118865 8417403
-3.3934164 0.72404957 1.1143031 8417404
-3.3883252 0.72324014 1.1181841 8484731
-3.3453972 0.7474798 1.1161921 8680058
-3.3458285 0.75143957 1.1154661 8483192
-3.383363 0.76954335 1.1171603 8548215
-3.3507752 0.76649374 1.1102389 8482674
-3.382391 0.77592933 1.1172336 8679032
-3.4186494 0.81786186 1.1186996 8287608
-3.4223657 0.82109189 1.1155972 8090484
-3.4195271 0.82591897 1.1172224 8221557
-3.502799 0.85713685 1.1185052 8416633
-3.5036922 0.86533654 1.1170019 8351348
-3.5031407 0.87599242 1.1163256 8351610
-3.4993587 0.87270522 1.1194829 8220796
-3.5107048 0.88256675 1.1100111 8416893
-3.502038 0.89730406 1.1149731 9272694
-3.4951572 0.92844057 1.1169286 459015
-3.5027213 0.93501496 1.1106141 590085
-3.4957526 0.93390703 1.1159264 656393
-3.5362864 0.95568782 1.1175112 721931
-3.5368872 0.96120286 1.1165 722448
-3.4870691 0.99564451 1.1161036 2623258
-3.394032 0.99341422 1.1191479 5846567
-3.4927421 1.0005753 1.1113677 2754839
-3.4455407 1.0066773 1.112162 5584153
-3.4384861 1.0042245 1.1176758 5649438
-3.4023421 1.0079315 1.1114659 5781795
-3.3953483 1.0055 1.1169322 5847334
-3.3594215 1.0090461 1.110577 5979160
-3.5326486 1.0174334 1.113923 2556698
-3.5273757 1.016595 1.1179426 3675924
-3.4840755 1.0153126 1.1163297 5386515
-3.4442222 1.0153415 1.1122617 5584417
-3.4379396 1.0147864 1.1170056 5715758
-3.3980842 1.0151721 1.1139038 5847066
-3.3552003 1.0162237 1.1129935 6110238
-3.5268195 1.0273455 1.1172603 5058061
-3.4830775 1.0218686 1.116405 5452825
-3.4444478 1.0278009 1.1108214 5716250
-3.4369504 1.0212846 1.1170802 5781791
-3.4008198 1.0248444 1.1108755 5912856
-3.3574774 1.0218182 1.1107237 6110490
-3.5239048 1.0323015 1.118929 5386519
-3.477746 1.0357933 1.1189613 5650458
-3.5218914 1.0455301 1.119081 5583909
-3.4809768 1.0497363 1.1151279 5716260
-3.3535891 1.0473622 1.1110173 6307631
-3.4780879 1.0546488 1.1167818 5782306
-3.4404912 1.0537938 1.1111202 5781539
-3.350775 1.0521473 1.1126285 6307372
-3.3479612 1.0569323 1.1142396 6111274
-3.478981 1.0628483 1.1152786 5782054
-3.351645 1.0601343 1.1111642 5914665
-3.3488312 1.0649194 1.1127753 5783081
-0.14776513 -0.20501111 1.1217999 15262953
0.57946521 -0.15160047 1.1288 2694689
0.58614874 -0.15415543 1.1274875 2629152
0.592134 -0.15512298 1.1261334 2498082
0.57711077 -0.14475244 1.1284667 6902595
0.58502251 -0.14501631 1.1278453 4730916
0.5941571 -0.14543892 1.1276751 2954002
0.60129887 -0.14503768 1.1288 2691092
0.60129887 -0.13847488 1.1288 4134175
-1.4671646 -0.06707596 1.1288494 2500404
-1.5180124 -0.04175391 1.1296939 1442817
-0.67177802 -0.033262674 1.1217999 12958904
-0.66647404 -0.038335416 1.1217999 13155764
-1.4373375 -0.025231289 1.1260861 9337182
-0.67177808 -0.028914612 1.1217999 12892091
-1.8018663 -0.010058062 1.1261911 15060888
-1.7954258 -0.015274589 1.1286567 13875604
-1.7960293 -0.0076840119 1.1279204 14600135
-3.1366816 0.11709328 1.1287025 9405065
-3.1041822 0.15056431 1.120491 9732232
-3.1620331 0.22774999 1.1262841 9338247
-3.350265 0.57963568 1.1296921 8680575
-3.3539178 0.58281058 1.1266427 8746621
-3.3141751 0.6032899 1.1229081 13354700
-3.3809574 0.71683627 1.1243348 8549242
-3.3846414 0.72003824 1.1212595 8549754
-3.3781433 0.72162139 1.1259459 8549246
-3.3742552 0.74716538 1.1262395 8614522
-3.3779392 0.7503674 1.1231642 8548736
-3.4613125 0.77757406 1.1237792 8417903
-3.4561322 0.77675039 1.1277283 8417648
-3.4173241 0.78510088 1.1230322 8482172
-3.4085841 0.78723025 1.1293358 8875898
-3.4123003 0.79046029 1.1262333 8679037
-3.4094617 0.79528737 1.1278586 8810620
-3.4070616 0.80414307 1.1287453 8614267
-3.4135137 0.81704533 1.1226146 8483961
-3.4158108 0.82268894 1.1203249 8352889
-3.4045587 0.82749796 1.1282289 8482945
-3.4119916 0.83395815 1.1220241 8220540
-3.4966793 0.84810632 1.1239927 8483185
-3.4044559 0.84199727 1.1268258 8616057
-3.5004613 0.85139352 1.1208353 8482421
-3.4956813 0.85466236 1.124068 8482672
-3.4936857 0.86777437 1.1242187 8220797
-3.4860168 0.87595576 1.1291053 8353404
-3.4906919 0.88744247 1.1244448 9206395
-3.4869099 0.88415527 1.1276021 9075837
-3.4453826 0.89617109 1.123559 196907
-3.4481423 0.90592754 1.1205044 393475
-3.4819202 0.91693544 1.1279788 393475
-3.4913752 0.92515337 1.1200858 393477
-3.4842577 0.92267883 1.1256486 459781
-3.4884863 0.93006581 1.1217397 525576
-3.5321705 0.94961399 1.1212019 787466
-3.5283549 0.94629759 1.1243871 787724
-3.527348 0.95291185 1.1244632 656658
-0.32237512 0.95801681 1.1252844 5586479
-0.31496185 0.95630056 1.1278174 5520685
-0.3091372 0.954952 1.1298075 5520682
-0.32173124 0.9608134 1.1252948 5586480
-0.31908363 0.96020043 1.1261995 5520434
-3.4342947 0.99690264 1.1215502 5713687
-3.4258084 0.99688447 1.1278837 6107681
-3.3907542 0.99421269 1.1215117 5650981
-3.3874769 0.99501115 1.1238755 5454375
-3.5144715 1.0091239 1.1283329 5057045
-3.4760647 1.0046384 1.1233958 5320467
-3.4689472 1.0021638 1.1289586 5451796
-3.4329758 1.005567 1.1216499 5846308
-3.4266934 1.0050118 1.1263937 5977382
-3.3869352 1.005482 1.1232109 5782049
-3.5221028 1.0157566 1.1219622 4926224
-3.51683 1.0149183 1.1259818 5189136
-3.4774044 1.0169379 1.1211408 5518361
-3.4698403 1.0103635 1.1274554 5583385
-3.4332018 1.0180264 1.1202096 5782048
-3.5661092 1.0280337 1.1231778 2556697
-3.5593176 1.0296884 1.1280761 4729875
-3.5215464 1.0265071 1.12128 5189392
-3.5191882 1.0207127 1.1236309 5123595
-3.5616975 1.0355357 1.1257037 4794894
-3.5209901 1.0372577 1.1205977 5452834
-3.5157173 1.0364193 1.1246173 5518625
-3.5148609 1.0444123 1.1244406 5584430
-3.5084307 1.0488095 1.1287891 5715745
-3.5122464 1.0521259 1.1256037 5716013
-0.15633518 -0.18506789 1.1328 13157068
-0.15875621 -0.17734961 1.1368001 12169160
0.59904742 -0.1554307 1.1328 2039066
0.60286582 -0.15557082 1.1338 1774619
0.57610554 -0.14792003 1.1341333 6047550
0.59685636 -0.14610046 1.1328 3020052
0.58151859 -0.092863254 1.1328 4672074
-1.4623939 -0.072870292 1.1308131 4142906
-1.4618388 -0.066843443 1.1305649 2959928
-1.458891 -0.064887851 1.1313844 2695732
-1.4601303 -0.055807587 1.1303352 1577243
-1.4585495 -0.056173518 1.1308753 1577500
-1.5764694 -0.044902045 1.1393646 1179910
-1.5148184 -0.042493369 1.1307852 1181961
-1.463521 -0.047608394 1.1381347 1510157
-0.026611462 -0.043463122 1.134447 1707816
-0.017810602 -0.041418295 1.1368001 329780
-1.4452639 -0.034627885 1.1336626 5184778
-0.017200155 -0.035235349 1.1328 5908753
-1.7867528 -0.021007936 1.1318852 15320213
-1.8054658 -0.016496351 1.1360183 13026439
-3.0534637 0.078965999 1.1393512 9930120
-2.0708456 0.10275076 1.1312393 7414810
-2.0668986 0.10379458 1.1324486 10776126
-3.1236329 0.18358195 1.1316514 9273216
-3.1188679 0.18282439 1.1352838 9142148
-3.2034686 0.4100531 1.134596 8878207
-3.3457496 0.56854129 1.1341934 8877700
-3.3432467 0.57592577 1.1353068 8746115
-3.3393066 0.57011098 1.1388403 8942470
-3.2979767 0.57499254 1.1378819 11304837
-3.3052206 0.5812887 1.1318346 11239281
-3.3372777 0.59702671 1.1376067 14071720
-3.4089961 0.72923309 1.1349481 8549756
-3.4127123 0.73246318 1.1318457 8483962
-3.3993962 0.76465577 1.1384948 8417900
-3.4443395 0.7775377 1.1364462 8482937
-3.4002738 0.77271295 1.1370177 8417388
-3.4034483 0.78641367 1.1332507 8679033
-3.4837565 0.79233426 1.1393267 8352113
-3.404326 0.79447091 1.1317736 8875900
-3.4817607 0.80544633 1.1394774 8482682
-3.4375196 0.80839968 1.1383845 8614523
-3.4015992 0.80547386 1.1326851 8614267
-3.3893845 0.85807556 1.1364292 3552092
-3.3931007 0.86130565 1.1333268 3617117
-3.3865457 0.86290264 1.1380545 65839
-3.4822347 0.8726685 1.1322626 8615290
-3.4793458 0.87758094 1.1339165 9207162
-3.4276285 0.87338191 1.1391314 3683164
-3.4831278 0.88086814 1.1307592 8944763
-3.4278543 0.88584137 1.1376911 196882
-3.4265354 0.89450562 1.1377908 526611
-3.4733582 0.91691709 1.1343687 591627
-3.4771402 0.92020434 1.1312114 592135
-0.30596045 0.94836831 1.1349978 5455660
-0.3128069 0.95295596 1.1361338 5455662
-0.30426288 0.9533062 1.1328511 5454887
-0.29557732 0.95328546 1.1343358 5651751
-3.5030246 0.99917471 1.1378887 5188376
-3.463274 0.99723303 1.1336944 5451028
-3.4576011 0.99230224 1.1384304 5385749
-3.5106559 1.0058075 1.1315181 5057046
-3.5034752 1.0033109 1.1371304 5188884
-3.4584942 1.0005019 1.136927 5844762
-3.5115569 1.0140799 1.1300015 5255185
-1.975757 -0.23040888 1.1482857 9924423
-1.9413829 -0.23711024 1.14307 9858885
0.55823445 -0.16085349 1.148 3680565
0.61152649 -0.1653031 1.148 2371376
0.55823445 -0.15862869 1.148 4073784
0.56615078 -0.15592811 1.1454999 3811895
-0.52723533 -0.12247835 1.1492509 5004360
-1.614604 -0.050531514 1.1486536 7746318
-1.7683445 -0.040071849 1.1497676 13685664
-1.6160662 -0.045633674 1.1478297 12884588
-1.6033988 -0.044702943 1.1413432 7555116
-1.571606 -0.046028003 1.1410263 1049361
-1.5683638 -0.046778634 1.142134 1115145
-3.0217733 -0.033709474 1.1467049 9799573
-3.0184073 -0.036635067 1.1495149 9800082
-1.7708921 -0.035736691 1.1486306 14140066
-1.7671165 -0.034738153 1.1497874 14665916
-3.061003 -0.021051897 1.1439351 9931149
-3.0559127 -0.025476065 1.1481843 9602184
-3.0285056 -0.027858222 1.141085 9667726
-3.0508714 0.08337377 1.1408354 10060680
-3.0769219 0.11344752 1.144618 9601674
-3.1473818 0.13656667 1.1465223 9403783
-3.1034474 0.15588577 1.1495385 9404292
-3.3356538 0.56693614 1.1418897 9007999
-3.2921162 0.56634426 1.143137 9792890
-3.2884941 0.56319618 1.1461606 9858935
-3.2943547 0.57184446 1.1409055 11304065
-3.3317983 0.59226435 1.1421808 14204843
-3.4333012 0.73851204 1.1486651 8549755
-3.4356184 0.74420488 1.1463554 8483963
-3.4313231 0.75150847 1.1488144 8615035
-3.3965576 0.76948285 1.14012 8351858
-3.4808676 0.79724663 1.1409806 8417402
-3.4317927 0.81813794 1.1416633 8942970
-3.4289293 0.82300705 1.1433027 9270141
-3.4269509 0.83600354 1.143452 8090754
-3.4245303 0.84493637 1.1443465 9010046
-3.4188032 0.85467458 1.1476252 7631730
-3.4248691 0.86362553 1.1421862 7235436
-3.4232204 0.87445593 1.1423105 1249342
-3.4166081 0.87606674 1.1470795 327954
-3.4668968 0.88903105 1.1420357 3752538
-3.4219015 0.88312012 1.1424103 327940
-3.4632857 0.89517158 1.1441033 196900
-3.4227867 0.89124745 1.1409202 329231
-3.45823 0.9037683 1.1469977 787471
-3.4987309 0.92803895 1.1483529 657171
-3.5425241 0.93951535 1.1498094 526343
-3.5041187 0.93521833 1.1436003 656393
-3.4996319 0.93631142 1.1468363 721927
-0.30148336 0.94737482 1.1402134 5521199
-0.29600143 0.94684559 1.1420337 5848618
-0.2815688 0.94868344 1.1465964 5785133
-0.27890867 0.94806761 1.1475053 5916461
-0.29477972 0.95341313 1.1438608 5586214
-0.28513968 0.95345622 1.1450955 5587754
-0.2766082 0.95197433 1.1479754 5982001
-3.4983079 0.98758584 1.1425906 3017247
-3.453819 0.98901504 1.1415876 5387033
-3.4939361 0.99501997 1.1450936 5385235
-3.4528213 0.99557114 1.141663 5648670
-3.4480412 0.99883991 1.1448956 5846305
-3.4962943 1.0008144 1.1427426 5320209
-1.9718903 -0.2337696 1.1515136 9727820
0.14326426 -0.18480197 1.156875 12763852
0.143053 -0.1783814 1.152 12697805
0.55550635 -0.17172568 1.154857 3418161
0.56560177 -0.17254291 1.1555001 1577762
0.61398441 -0.17503645 1.1571668 4341833
0.55621815 -0.165631 1.152 3811125
0.561665 -0.16662325 1.152 2694186
0.61254311 -0.16811162 1.152 3356988
-0.5229739 -0.12442736 1.1539372 7298072
-0.51514906 -0.1236956 1.1538428 6770760
-0.50574178 -0.12533106 1.1543356 7037028
-0.46813074 -0.12316754 1.1548193 8089454
-0.32621428 -0.12413023 1.1520001 919834
-0.52225477 -0.11917418 1.1506355 10389584
-0.088774472 -0.070303686 1.159 131360
-1.752574 -0.053710472 1.1558666 12953718
-1.7460718 -0.054217078 1.1580172 14535349
-1.625417 -0.053454768 1.1548309 11501934
-1.6184895 -0.05652469 1.157302 917775
-3.0116754 -0.042486317 1.1551348 9930131
-1.7523316 -0.047524415 1.1555053 14863540
-3.0474291 -0.03284971 1.1552665 9799057
-3.0999992 0.15288882 1.1524171 9404294
-3.3540423 0.59221047 1.1571362 14337709
-3.4304378 0.7433812 1.1503044 8549755
-3.4275744 0.74825025 1.1519438 8614774
-3.424711 0.75311935 1.1535833 8680306
-3.4154973 0.85548002 1.1500096 7171947
-3.4958162 0.93299502 1.1500216 722445
-0.2746661 0.93782192 1.1559378 5850158
-3.5381124 0.94701731 1.1523352 656393
-0.28472403 0.94708401 1.1520078 5652779
-0.27509949 0.94510335 1.1552788 5914928
-0.2664519 0.9466176 1.1579831 5915451
-0.28408659 0.95188892 1.1518734 5653543
-0.27109358 0.95333815 1.1559955 5982000
-0.26575187 0.95210147 1.1578207 5915957
-3.4849532 0.97597849 1.1537391 3082267
-3.5237541 0.99122053 1.1585358 3016990
-3.5285139 1.0029151 1.153791 5254937
0.56973076 -0.18160874 1.1670001 2037541
0.61492592 -0.184581 1.1655883 2630965
0.6216476 -0.18613197 1.1670001 3158093
0.56636727 -0.17750299 1.1638 2169380
0.57002747 -0.17873237 1.163 1184040
-0.076131985 -0.1478938 1.1656667 9405598
-0.47482941 -0.13312541 1.1670508 8152425
-0.46815231 -0.13467126 1.1693321 8022382
-0.47222853 -0.12885509 1.1612689 8551278
-0.46823841 -0.12977886 1.1626323 8223342
-0.54328728 -0.081956401 1.165 12496307
-1.6344848 -0.060112678 1.1628953 12763042
-1.6245476 -0.06241326 1.1662905 2359572
-1.7425749 -0.055351399 1.1645049 14600625
-1.6204298 -0.059681341 1.1674353 1048852
-2.0378597 0.076356903 1.1672422 14339240
-3.2171941 0.31123209 1.1647366 9075589
-3.2326579 0.48401818 1.1656069 8943487
-3.2285423 0.49101669 1.1679631 9009536
-3.3128741 0.53996724 1.1616379 9009012
-3.305856 0.53625727 1.1672527 9009018
-3.2609019 0.53565949 1.1695576 8086401
-3.3119102 0.54629928 1.1617107 9140083
-3.269001 0.54980814 1.1620708 11635584
-3.3038058 0.55538726 1.1668297 9005175
-3.2662344 0.55451268 1.1636547 15125429
-3.3056533 0.56476045 1.1644945 12623753
-3.2989228 0.5636903 1.1696253 14995891
-3.3080549 0.57162756 1.1620018 14861743
-3.3503585 0.58900857 1.1602116 14534321
-3.3874192 0.60835767 1.163384 14608611
-3.5223625 0.91443408 1.1674116 459012
-3.5194213 0.91943538 1.1690955 853260
-3.5271223 0.92612875 1.1626668 722959
-3.5241811 0.93113005 1.1643506 656923
-0.27047443 0.93942624 1.1635104 5848881
-0.25534853 0.95254642 1.1674957 5783088
-0.24779058 0.95207524 1.1699871 5718321
-3.5131121 0.98952854 1.1666484 5385499
-3.5092616 0.9861818 1.1698629 5451032
-3.520813 0.99622184 1.1602197 5319189
-3.5137184 0.99509382 1.1656281 5320214
-3.5178719 1.0012231 1.1619036 5385741
-1.9666238 -0.24429426 1.1715391 9726533
0.58954543 -0.1919622 1.175 1843512
0.59528631 -0.19378978 1.1768668 1514548
0.60407436 -0.19416586 1.1745374 1383226
0.61514395 -0.19406588 1.1750668 1845574
0.62530726 -0.1947621 1.1781501 2503242
0.58649188 -0.18792704 1.1721429 1973036
0.5947364 -0.18916848 1.1717999 1316914
0.60792339 -0.18903933 1.171 987693
0.61396337 -0.18903933 1.171 857912
-0.21426809 -0.16180678 1.171 9798290
-0.23310439 -0.15275717 1.1762286 9404541
-0.22423407 -0.15363701 1.1709998 9865099
-0.68279499 -0.087795898 1.17668 9669790
-0.54269171 -0.084647872 1.171 12627375
-0.52457178 -0.086917251 1.171 12497330
-1.7236084 -0.073822126 1.1772568 14470324
-1.6346805 -0.066544779 1.1740396 6696286
-3.0236747 -0.053495843 1.1750965 9799564
-2.9904976 -0.041072454 1.1707909 9734024
-3.1411829 0.14111476 1.1794748 9469577
-3.1261964 0.26563725 1.1779462 9337993
-3.236722 0.35711592 1.1755276 9141393
-3.2312343 0.36644727 1.1786695 9206407
-3.2948973 0.52673262 1.1764008 8681338
-3.2600465 0.52780688 1.1709971 8482433
-3.2530878 0.52412826 1.1765646 8547953
-3.2959037 0.535972 1.1747069 8746108
-3.2572799 0.53251141 1.1725812 8217215
-3.289892 0.54150146 1.1786278 8150146
-3.2980602 0.55577081 1.1710771 11635581
-3.2879643 0.55416566 1.1787734 15125686
-3.29527 0.56051546 1.1726747 15125684
-0.26309213 0.90475261 1.1757562 5389354
-0.25974286 0.90697461 1.1766872 5258790
-0.26178172 0.91044402 1.1757773 5389097
-3.5555956 0.92683053 1.1764029 590342
-0.23543353 0.94563425 1.174464 5456420
-0.2437682 0.95114398 1.1713614 5586994
-0.23974587 0.95021278 1.1727358 5456434
-3.50247 0.98783654 1.1747611 5386516
-3.5489237 0.99474555 1.1744485 3016477
-3.5056431 0.99563295 1.1715978 5386009
-3.4995289 0.99283785 1.176445 5386522
-3.5023632 1.0028591 1.1733073 5518368
0.61768991 -0.20018093 1.1832 2961225
0.62322259 -0.20085767 1.1872 2829639
0.63240784 -0.20085768 1.1872 2699848
0.62455565 -0.19788791 1.1832 2371913
0.63470417 -0.19855689 1.1872 2700362
-0.24606732 -0.15279442 1.1855999 9009778
-0.23938631 -0.15317395 1.1832 9272950
-0.46856642 -0.14171737 1.1834004 7824236
-0.24481764 -0.14522223 1.1860235 6186609
-0.32749695 -0.13139023 1.1832 2301737
-0.15752788 -0.10192434 1.1872 983331
-0.13754414 -0.091262326 1.1832 327945
-1.6342918 -0.073690474 1.185214 3146050
-3.0134945 -0.06234419 1.1835951 9734028
-3.1191885 0.2595464 1.1837963 9272197
-3.1866343 0.36624801 1.1819214 9075081
-3.2873042 0.51774299 1.1829836 9008765
-3.2391701 0.51677114 1.1876992 8414079
-3.2890294 0.53358197 1.1800798 8284544
-3.2789335 0.53197682 1.1877761 8348282
-3.2871017 0.54624611 1.1802254 11635590
-0.2255135 0.94625854 1.1850232 5455147
-0.22705178 0.95036143 1.184231 5586730
-1.9036133 -0.28097385 1.1907485 9333555
0.63782525 -0.21147627 1.1952 987435
0.62839454 -0.20230393 1.1912 2502993
0.63462502 -0.20655721 1.1935334 2238272
-0.068543755 -0.17586969 1.1972001 8225439
-0.25252518 -0.1519011 1.1912 8943478
0.1599019 -0.15767241 1.1912 11640999
-0.25418013 -0.14625438 1.1922001 3028565
0.51152897 -0.1422255 1.1972001 5525844
-0.323883 -0.13272278 1.1952 2761778
-0.31443906 -0.1338446 1.1963428 3287365
-0.71464896 -0.12154683 1.1992 8550808
-0.3239511 -0.12939295 1.1912 2762288
-0.71164984 -0.11642305 1.1969779 7828871
-1.7006986 -0.10129453 1.1984663 12962700
-1.6977084 -0.10388059 1.1996228 12824197
-0.70458293 -0.10819785 1.1972001 9736090
-1.7024471 -0.093314774 1.1973299 14535882
-1.6338904 -0.093672037 1.1973059 9739681
-1.6285043 -0.094919026 1.1991463 5526615
-1.7228725 -0.088585958 1.190351 11111278
-1.7160949 -0.085105091 1.1923075 14075820
-1.6351802 -0.085414581 1.1962987 4867404
-1.6281407 -0.085639894 1.1986042 1707531
-1.6336453 -0.078747503 1.1963236 983591
-3.1228361 0.11829104 1.1954926 9535623
-3.2046442 0.42089203 1.1929507 9009029
-3.2008531 0.44579893 1.1932371 9009282
-3.2017012 0.45358667 1.1918093 9074562
-3.1953652 0.45513031 1.1963788 8878212
-3.235548 0.51362306 1.1907228 8413059
-3.2716277 0.52562702 1.1938748 8349304
-3.2679749 0.52245218 1.1969242 8343675
-0.22370633 0.94230163 1.1942036 5389871
-1.8801342 -0.24104926 1.2041907 9003571
-1.8775728 -0.24327557 1.206329 8872502
-1.8756162 -0.23994856 1.2074492 9003324
-0.061905455 -0.2373755 1.2032 9013922
0.14326805 -0.23499522 1.2045636 12301758
-0.068887271 -0.18257861 1.2032 8356766
0.50129455 -0.15343133 1.2032 6574925
-0.68145281 -0.14119081 1.2082 11178396
-0.72118086 -0.12948345 1.2082 9669534
-0.18408728 -0.1110706 1.2032 852230
-1.6342922 -0.10391328 1.2084436 10463144
-1.7135206 -0.096439712 1.2044907 14405037
-1.6230454 -0.094310172 1.2008781 2165525
-2.9837546 -0.081532009 1.207742 9931149
-3.0061116 0.031767502 1.2057855 9602188
-3.0828676 0.049796514 1.2035118 9732493
-3.0802128 0.054310765 1.2050318 9863565
-3.2182937 0.5057354 1.2044013 12099972
-3.2570164 0.51292741 1.2060724 8413574
-0.22231199 0.9349286 1.2007827 5521209
-0.062584601 -0.25058782 1.2164 7235732
-0.061600268 -0.24523346 1.2155601 7960995
0.14333153 -0.24456972 1.2143 12170690
-0.068607338 -0.19327493 1.21472 8818081
-0.068230212 -0.18864276 1.2122 8554651
0.15582165 -0.17587525 1.21325 14406102
-0.7212823 -0.14467855 1.2138801 12172221
-0.72258568 -0.13535075 1.2128 10982049
-1.6848021 -0.11260694 1.2149804 14667452
-1.6856809 -0.10859608 1.2144091 14403782
-1.6264719 -0.10478248 1.2110485 4201298
-2.9718776 -0.091855101 1.217657 9865356
-2.9803612 -0.084481455 1.2105749 9996685
-3.0119989 -0.070500948 1.2118317 9996170
-3.0085795 -0.073472954 1.2146862 9930638
-1.9442599 0.01133795 1.2112039 16448254
-3.1009855 0.092421904 1.2144356 9339275
-3.2545037 0.41395125 1.2180495 8944005
-3.2424052 0.50022793 1.2182699 8408450
-3.239615 0.50497252 1.2198673 11968906
-0.24264513 0.87977606 1.2191739 5389348
-0.25137681 0.88383979 1.2160453 5717803
-0.06066094 -0.2547532 1.2250667 6646168
0.14304112 -0.25342458 1.2243999 11711941
-0.069872029 -0.20174441 1.2204 9409184
-0.06829834 -0.19859092 1.2204 9212836
-0.72256172 -0.14971186 1.2204 13549206
-0.69514668 -0.14743297 1.2211143 12102323
-0.28573102 -0.14195983 1.2249 5062211
-1.6803733 -0.12551984 1.2289327 14863264
-1.6795363 -0.12188434 1.2289463 14404038
-1.633902 -0.11486532 1.2211542 11645872
-1.6271856 -0.11528404 1.2233682 4667988
-2.9600005 -0.10217816 1.227572 9668234
-1.9336959 0.0021561591 1.2200228 16513278
-3.0465217 0.12053091 1.2234092 9273476
-3.0693069 0.20931391 1.2261395 9272711
-3.0749764 0.21768034 1.2210555 9272968
-3.1045322 0.26512566 1.2232037 9206916
-3.0978842 0.26281434 1.2283995 9206141
-3.2522459 0.40840399 1.2203003 9075331
-3.1980195 0.40991297 1.229308 9140612
-3.2344017 0.49506426 1.2247682 9527426
-3.2286563 0.49544781 1.2290156 12298627
-3.2359619 0.50179762 1.2229168 12100497
-0.24213597 0.87618721 1.2269726 5389344
-0.23687921 0.87642533 1.2270256 5389353
-0.24699514 0.88038951 1.2250935 5586729
-0.23456788 0.88276958 1.2223254 5323820
-0.061238632 -0.26436695 1.2367333 5264533
0.14467961 -0.26231998 1.2384 12959423
0.14290263 -0.25887057 1.2334 11776965
-0.16518265 -0.22226916 1.2358999 14933218
-0.17150761 -0.21912 1.2384 13748945
-0.16529337 -0.21634848 1.2349001 14933987
-0.074034147 -0.2158168 1.235323 10722725
-1.6613032 -0.15291049 1.2370834 524549
-1.6578614 -0.15370731 1.2382594 917779
-0.70695382 -0.15629816 1.2350667 13876640
-0.27459252 -0.15130663 1.2334 262422
-0.26862833 -0.15130663 1.2334 65844
-0.28376368 -0.14455293 1.2348999 4338230
-0.27459252 -0.14533086 1.2334001 2957851
-1.672606 -0.13114737 1.2318592 13750973
-0.28174961 -0.13935508 1.2334 5588811
-2.911489 -0.12295706 1.2380959 9142159
-1.6744975 -0.12624197 1.2308949 14010292
-1.6275048 -0.12206478 1.2342863 3614977
-2.9481235 -0.11250125 1.237487 9273472
-2.9089179 -0.11858501 1.239568 9076888
-1.6266726 -0.11845012 1.2342998 1245460
-3.0935175 0.25208533 1.2327526 9599616
-3.1206136 0.283227 1.2396524 9141380
-3.1943974 0.40676489 1.2323316 9271172
-3.1916308 0.4114694 1.2339156 9206143
-3.2258661 0.50019246 1.2306131 15718584
-0.2331658 0.86697727 1.2379227 5258280
-0.23269701 0.87311965 1.2346871 5323564
-0.22978809 0.8761881 1.234677 5258541
-0.061519228 -0.27039054 1.2424001 4673675
0.14681965 -0.27246884 1.2464 9796998
0.15043589 -0.2712611 1.2464 11050888
0.14375085 -0.26676109 1.2441778 11381166
-0.074875645 -0.22506775 1.2447333 10986156
-0.068949789 -0.22536652 1.2464 9735845
-0.74157184 -0.16135566 1.2464 7882352
-0.7359466 -0.16014791 1.2464 5308696
-0.71601701 -0.16159721 1.2464 9400662
-0.73648846 -0.15602233 1.2424001 6371661
-0.71275795 -0.15963396 1.2424001 11451771
-0.70795172 -0.15963396 1.2424001 11449222
-0.28531423 -0.15137039 1.2437334 2296601
-1.6745139 -0.14238709 1.2427888 10060893
-2.901391 -0.13173391 1.2465258 9536398
-2.898025 -0.13465953 1.2493358 9471121
-1.6719425 -0.13913287 1.2433934 15126168
-2.9362464 -0.1228243 1.247402 8944260
-2.9034715 -0.12662226 1.2444519 9470859
-1.633956 -0.12860768 1.2442473 5989987
-1.6296772 -0.12576899 1.2454368 1245443
-3.0712996 0.052865468 1.2406213 9601928
-3.1924338 0.29842049 1.2448553 9141383
-3.222693 0.36479357 1.2468004 9599107
-3.2516327 0.46343043 1.2466869 9008765
-3.1648195 0.46636716 1.2483158 15920061
-3.2528355 0.48978397 1.2430998 9129339
-3.2473094 0.484981 1.2477129 8605052
-3.2500215 0.49456903 1.2447108 12431745
-3.2467723 0.49536055 1.2470541 13944476
-0.05002971 -0.29029667 1.2556 1649045
-0.042258102 -0.29126999 1.2556 3816606
0.014324429 -0.29139096 1.255075 9932226
0.023233861 -0.29110777 1.2556 10066884
0.035781767 -0.29029667 1.2556 10198463
-0.053065494 -0.28512579 1.2556 4608139
0.13677216 -0.28360498 1.2556 7567762
0.14280325 -0.28250998 1.2556 7762039
0.13549432 -0.27516147 1.25315 6385562
0.14322302 -0.27538672 1.2526 8879241
-0.068205692 -0.23420072 1.2549 9539235
-0.068016127 -0.22869578 1.2514 9737384
0.44136241 -0.19377445 1.2556 12957113
0.44149974 -0.18989268 1.2514 12891579
-0.74218827 -0.17106333 1.2556 14211030
-0.72114021 -0.17187445 1.2556 8886430
-0.71790206 -0.17106333 1.2556 7178138
-0.74419141 -0.16682382 1.2542 12434875
-0.72414559 -0.16534607 1.2544 4593220
-0.71790838 -0.16682248 1.2542 5377562
-2.8912928 -0.14051075 1.2549556 9471374
-2.8879268 -0.14343637 1.2577657 9536396
-1.6346306 -0.14328006 1.2558224 9739168
-1.6352385 -0.13800655 1.2552495 8745562
-3.2013612 0.4573845 1.2532651 9134964
-3.1955607 0.45473289 1.2578634 9197173
-3.1539536 0.45692295 1.2573867 16182209
-3.1921279 0.46369889 1.2595094 12632453
-3.1611977 0.46321908 1.2513394 15919807
-3.1575756 0.460071 1.2543631 16051393
-3.2002962 0.47796819 1.2519588 15852728
-3.1948171 0.47320586 1.2565329 15919287
-0.051448084 -0.29267418 1.2606 3221659
-0.046977866 -0.29308137 1.2606 3813278
-0.014888366 -0.29296559 1.26185 6445493
-0.0069491486 -0.29267418 1.2606 7432118
-0.05510553 -0.28900963 1.2606 3228805
0.1037902 -0.28819528 1.2606 6976684
0.11435617 -0.28656662 1.2606 6517673
0.12505761 -0.28602374 1.2606 6847147
0.13194674 -0.2869156 1.2606 8094882
-0.067777485 -0.25170559 1.2696 8682656
-0.17207769 -0.24545918 1.2691 14999264
-0.068234347 -0.24345583 1.2629333 9408423
-0.17037864 -0.23742263 1.2656 15063775
-0.16604808 -0.23770615 1.2606 15130853
0.1573289 -0.23284203 1.2696 14406613
0.15660356 -0.22646917 1.2637668 13946066
0.44230908 -0.20637818 1.2662001 13286587
-0.75341064 -0.19167024 1.2696 12101029
-0.74350595 -0.19388466 1.2696 12892082
0.44393277 -0.19780345 1.2606 13022906
-0.75216794 -0.18478787 1.2662667 13285815
-0.74312413 -0.18597767 1.2639124 13813192
-0.73685902 -0.18269175 1.2659334 14011344
-1.6354263 -0.17319649 1.2692859 13417873
-0.75225157 -0.17593449 1.2643499 14076874
-0.74433106 -0.17642699 1.2606 14339790
-0.72710043 -0.17467615 1.2606 11642537
-0.7317332 -0.16808 1.2606 6309223
-0.72807574 -0.16930151 1.2606 5000830
-2.8778288 -0.15221322 1.2661955 9405327
-1.6338942 -0.15380685 1.2684045 10462627
-2.8828778 -0.14782479 1.2619805 9405323
-1.6334053 -0.14850006 1.2681859 5788503
-1.6299256 -0.14930566 1.2693747 3146028
-3.1323268 0.23465288 1.2659149 9272454
-3.129159 0.2354247 1.2681997 9141638
-3.1333168 0.24373859 1.2642492 9075846
-3.2038963 0.35921088 1.2613941 8944511
-3.2011061 0.3639555 1.2629917 9075326
-3.1983159 0.36870015 1.2645892 9009534
-3.1927354 0.37818938 1.2677841 9074807
-3.238508 0.41948408 1.2609648 9140608
-3.1912653 0.45577934 1.2609614 9258111
-3.1845348 0.45470929 1.2660922 11704204
-3.1503317 0.45377487 1.2604103 16117698
-3.1453264 0.45297915 1.2642257 15853786
-3.2219567 0.4665609 1.2685083 11043453
-3.1884751 0.46052396 1.2625588 12566923
-3.2640059 0.47920886 1.268643 8999807
-3.2260756 0.47375637 1.2647008 12565885
-3.2663026 0.48485243 1.2663532 10453635
-3.2222896 0.48492748 1.2663853 15525359
-3.2679462 0.49479082 1.2641128 14471591
-3.2629223 0.50015026 1.267314 15393776
-0.17336529 -0.26092359 1.2786 15196645
-0.17282295 -0.25516701 1.2746 15262438
-0.068151176 -0.25680634 1.2766 7701408
0.15663064 -0.24208789 1.2772666 13881040
0.15630493 -0.2372584 1.2746 13684432
0.44398561 -0.21648411 1.2774571 13549761
-0.76072991 -0.20145383 1.2786 12300215
-0.75083745 -0.20145383 1.2786 12036009
-0.74511343 -0.2024827 1.2772666 11574176
-0.76072991 -0.19773698 1.2786 12102573
-0.75408041 -0.19685581 1.2763144 12101035
-0.74227589 -0.19546938 1.2759334 12824745
-1.6457684 -0.18107906 1.2780771 5638145
-0.74104327 -0.1878466 1.2759334 13747915
-0.73775357 -0.18702321 1.2759334 13219517
-1.6455164 -0.17464852 1.2777015 12103545
-2.8677306 -0.16099006 1.2746254 9601927
-1.6434517 -0.16701545 1.2778298 14469307
-2.8710966 -0.15806444 1.2718155 9535870
-2.8651595 -0.15661801 1.2760975 9536396
-3.1241951 0.23463547 1.2719837 9207685
-3.1866972 0.32275277 1.2779474 9075075
-3.1434894 0.39095435 1.2719272 9075329
-3.21591 0.42635611 1.2771233 8943488
-3.2542763 0.46710512 1.2771375 9195896
-3.2617087 0.47356522 1.2709328 9002108
-3.261167 0.48403594 1.2702682 12432262
-3.2578893 0.48483443 1.2726321 14141856
-3.2536314 0.49207503 1.27507 15525615
-0.068101957 -0.26583081 1.2873499 7236759
0.15802173 -0.25047785 1.2886 14078156
0.44590044 -0.23049957 1.2886 14405068
0.45711651 -0.23049957 1.2886 14010570
0.4446024 -0.22485121 1.2848499 14076876
0.45364407 -0.22502214 1.2858222 13813190
0.26913393 -0.21343581 1.2836 14340810
0.45161864 -0.2196548 1.2836 13484995
-0.76349759 -0.20520964 1.2865999 12366773
-0.75645065 -0.20543054 1.2857428 11905454
-0.74880803 -0.20721681 1.2836 11312801
-1.6238576 -0.1926406 1.2860252 9460534
-1.6168749 -0.19166169 1.2882264 15126159
-0.74135965 -0.19353503 1.2836 12232619
-1.6478422 -0.18506867 1.2892801 6687010
-1.6309199 -0.18062343 1.2828734 15061153
-1.6251032 -0.18537669 1.2851032 13222042
-1.6153524 -0.18344884 1.288137 5792100
-1.6602066 -0.1743757 1.2844982 8872531
-1.65729 -0.17244081 1.285309 13415293
-1.6341515 -0.17598194 1.2814922 14404791
-1.625277 -0.17479207 1.2842935 9735316
-1.6169699 -0.1760664 1.2870857 2108987
-1.6327647 -0.16462304 1.281135 9471897
-1.6259457 -0.16542307 1.2834094 3351621
-2.9450281 -0.008876849 1.28455 9668239
-3.0477395 0.066690139 1.28583 9536153
-3.208832 0.42261454 1.282786 9205882
-3.2082949 0.43299407 1.2821273 8942972
-3.1573248 0.44778898 1.2870996 15656176
-3.2804365 0.48792154 1.2882929 15852730
-3.2865021 0.49687248 1.2828538 15589078
-0.074634939 -0.27604055 1.2956182 10721450
-0.067870565 -0.27552429 1.2947999 7103637
0.15789481 -0.2635842 1.2977999 14014168
0.15882291 -0.25677028 1.2951332 14144470
0.27311534 -0.25528428 1.2977999 3354680
0.45457712 -0.23614798 1.2960857 14208206
0.46289036 -0.238433 1.2977999 14076626
-1.8525546 -0.2165402 1.2980917 2559240
-0.76653785 -0.21186092 1.2967999 12564928
-0.7572071 -0.21242702 1.2951332 11311263
-0.7660197 -0.20886345 1.2938 12498363
-1.64166 -0.19041516 1.2916709 5253166
-1.6381409 -0.19122986 1.2928733 7812922
-1.6196899 -0.19158636 1.2988988 9350557
-1.6434355 -0.18739398 1.2908787 7032896
-1.6372851 -0.1875128 1.2928871 11445619
-1.6246362 -0.1728228 1.2959552 2099470
-3.0257611 0.15852593 1.2928543 9403781
-3.0248289 0.16464946 1.2929246 9665668
-3.0904944 0.20886962 1.2997571 9338498
-3.1180091 0.3225984 1.2979147 9075067
-3.1474311 0.41768065 1.297554 10508164
-3.1464674 0.42401272 1.2976267 13291674
-3.1528094 0.43669462 1.2916008 15985095
-3.1491563 0.43351969 1.2946502 15984838
-3.153672 0.44461411 1.290149 15722225
-3.1872921 0.45450896 1.2956014 15656434
0.15392566 -0.32209206 1.3055779 4208178
-0.076418981 -0.28612477 1.3063716 11904443
-0.066891797 -0.28723586 1.3055779 6513042
0.27477065 -0.26367745 1.3044668 5064781
0.27441961 -0.2582877 1.3028001 4143425
0.48795867 -0.25167549 1.3078001 14076878
0.46556303 -0.24487266 1.3053001 14207950
0.47644842 -0.24668074 1.306689 14076366
0.48365831 -0.24812718 1.3078001 14207440
-1.8601468 -0.23023696 1.3094554 854537
0.28685594 -0.23139951 1.3078001 13551043
-1.8592554 -0.2263658 1.3094698 1312514
-0.76378047 -0.22193694 1.3058001 11379634
-0.75748879 -0.22041559 1.3028001 9733523
0.28685594 -0.22886501 1.3078001 14143949
-0.77285713 -0.21656381 1.3056573 13287625
-0.76404059 -0.21688087 1.3028001 11706796
-1.6161709 -0.19240108 1.3001013 6577014
-1.6153151 -0.18868402 1.300115 1704251
-2.9017708 -0.17301816 1.304535 10061435
-2.8594234 -0.12298894 1.3047353 9537928
-2.8568311 -0.11858117 1.3062193 9472131
-1.8575622 -0.10534065 1.3040708 7293981
-1.8548316 -0.09728349 1.3052857 10177823
-3.0430815 0.22283168 1.3036624 9207686
-3.1171277 0.25429505 1.305544 9403780
-3.1130037 0.32180256 1.3017303 9140607
-3.1842206 0.36506885 1.3070219 8878462
-3.1782863 0.41775805 1.3060715 9593450
-3.1416309 0.41502902 1.3021523 11501454
-3.1373353 0.41607547 1.3052503 13355937
-3.1819701 0.42095998 1.3029962 9527913
-3.1800261 0.43373203 1.3031429 13027741
-3.1707141 0.44010019 1.3094405 15655921
-0.18215761 -0.29263121 1.3153 14997216
-0.084263086 -0.29664338 1.3161335 15129824
-0.07416331 -0.2962749 1.3155274 11312820
-0.064174339 -0.29613671 1.3153 5526154
-0.18181138 -0.28825629 1.3128 14997473
-0.17927212 -0.28825629 1.3128 15328745
0.28140256 -0.27147701 1.3178 5458774
0.32983235 -0.26126152 1.3178 15195107
0.33238128 -0.26126152 1.3178 15524580
0.31588459 -0.25009349 1.3128 14933212
0.32560414 -0.25411084 1.3151336 15525093
0.49415359 -0.25674462 1.3170859 14076620
0.31334531 -0.24754931 1.3128 14933463
0.32096311 -0.24754931 1.3128 15657451
-0.77513152 -0.230615 1.3178 12562347
0.28541338 -0.23228419 1.3128 12892085
-0.78150386 -0.22295338 1.3178 14207700
-0.77444202 -0.22451442 1.3144666 13288391
-0.7683816 -0.22719583 1.3128 11908009
0.28541338 -0.22974001 1.3128 13487809
-0.78107792 -0.21956326 1.3128 14408918
-2.8915126 -0.18193415 1.3130985 7367019
-2.8936262 -0.17674145 1.3109918 7562345
-2.8450482 -0.14214386 1.3174155 7826008
-2.8441529 -0.13626148 1.3174832 7758937
-2.8526363 -0.12888783 1.310401 9012602
-1.8596505 -0.087668695 1.3172332 16710372
-2.9087281 -0.026891688 1.3134717 8550269
-3.1276443 0.35746399 1.318463 8682374
-3.1639853 0.40894377 1.3176408 10182014
-3.1709182 0.41135412 1.3122222 9658736
-0.18099272 -0.30258417 1.3254 15263208
-0.09486749 -0.3054519 1.3255731 15525354
-0.085252039 -0.30636817 1.3261091 15393511
-0.074506223 -0.30492365 1.3262668 11444924
-0.064429738 -0.30555186 1.3271333 5063314
-0.057195615 -0.30875143 1.3279999 3807904
0.28422281 -0.28290772 1.3279999 6509654
0.29128665 -0.2812992 1.3279999 5524819
0.28550908 -0.27627084 1.3250285 5590358
0.29128665 -0.27743876 1.3279999 5327443
0.33684769 -0.26456428 1.3236667 15523806
0.4999519 -0.25968924 1.3228 14011594
-0.78483981 -0.23507987 1.3265142 13088687
-0.77935183 -0.23405357 1.3228 12296617
-0.79012144 -0.22853953 1.3279999 14471378
-0.78446901 -0.22700377 1.3228 14405328
-0.77935183 -0.22892644 1.3228 13612481
-1.8361939 -0.19179994 1.3271573 131588
-2.9115033 -0.17337185 1.3263522 7759468
-2.9330163 -0.15334837 1.329031 7299668
-2.9309251 -0.14426592 1.3290647 7693660
-2.8416548 -0.14509331 1.3202484 6902351
-2.8349466 -0.12206062 1.3229021 7627100
-2.8354809 -0.11715587 1.3220029 8217181
-2.8917994 -0.024685845 1.3258768 9142669
-2.8883514 -0.027682729 1.3287551 9339017
-3.0227456 0.18417966 1.3227799 9338501
-3.0191832 0.18108337 1.3257538 9403781
-3.1291144 0.27987397 1.3252858 9338499
-3.2021179 0.37435758 1.3255187 8747897
-3.1992791 0.37918466 1.327144 8944510
-3.1964402 0.38401175 1.3287693 9010052
-3.1958985 0.39448249 1.3281047 9075075
-3.1997447 0.44523898 1.3200545 15656178
-3.1969059 0.45006606 1.3216798 15326959
-0.18141934 -0.31323722 1.3380001 15592173
-0.08501938 -0.31461444 1.3346667 15394280
-0.075123407 -0.31375337 1.3346667 13420511
-0.065390497 -0.31472954 1.3348184 11450073
-0.054528628 -0.31538945 1.3361251 10269914
-0.18203056 -0.30819166 1.3329999 15460076
