# .PCD v0.7 - Point Cloud Data file format
VERSION 0.7
FIELDS x y z rgb
SIZE 4 4 4 4
TYPE F F F U
COUNT 1 1 1 1
WIDTH 1140
HEIGHT 1
VIEWPOINT 0 0 0 1 0 0 0
POINTS 1140
DATA ascii
-1.4644816 0.40712294 0.67859226 16118261
-1.4549208 0.40718496 0.67742807 15788267
-1.444036 0.40737683 0.67575401 15524836
-1.4359261 0.40628639 0.67552304 15396590
-1.4258446 0.40569183 0.67476058 11971516
-1.4145845 0.40459117 0.67464799 8410236
-1.4053115 0.40483797 0.67396957 9075577
-1.3956274 0.40433857 0.6742835 10917782
-1.3864212 0.40323684 0.67564768 10058880
-1.3745179 0.40570834 0.67494053 12760775
-1.364792 0.40602484 0.67667586 12693184
-1.3555307 0.40707287 0.67862505 14997982
-1.1134949 0.40122089 0.67224127 15658224
-1.1056952 0.40380174 0.67115885 15855603
-1.0939386 0.40249246 0.67241675 16119287
-1.0851426 0.40380698 0.67121774 16185080
-1.0758301 0.40249217 0.67093521 16645114
-1.06721 0.40125018 0.6705789 16513530
-1.037972 0.39863569 0.66829771 13209818
-1.0199713 0.40062228 0.66809106 14998764
-1.0155979 0.39977223 0.66913933 15328490
-1.006608 0.40083861 0.66917604 15525614
-0.99530333 0.40217561 0.66939902 15789806
-0.98673606 0.400273 0.67099905 14734817
-0.76177347 0.40554836 0.67431819 14933988
-0.75452429 0.40363005 0.67276442 15065317
-0.74447042 0.40380147 0.67370087 15196646
-0.73433602 0.40420941 0.67395949 15261925
-0.72404158 0.40484348 0.67391557 15130340
-0.71394104 0.40434304 0.67435861 15064543
-0.70466363 0.40383023 0.67406052 15196387
-0.69440609 0.40389585 0.67331672 14669529
-0.68595487 0.40398958 0.67391402 14340302
-0.67555845 0.40459496 0.6740427 14932957
-0.66579217 0.40473771 0.6731708 15261924
-0.65693885 0.40272799 0.67205453 14404814
-0.64875662 0.40041396 0.66877198 13089214
-0.64329052 0.39933491 0.66418546 12693689
-0.4428418 0.40528616 0.67498827 13682892
-2.1507368 0.41131139 0.6700623 15261165
-2.1484559 0.40953597 0.67223412 15328749
-2.1326959 0.41406983 0.67174715 14998505
-2.1261933 0.41134119 0.67580479 15129575
-2.1146832 0.41493982 0.67346972 15129572
-2.1017933 0.41559017 0.67236054 15260646
-2.0920267 0.41056567 0.67655492 15392744
-2.0838864 0.41518265 0.67187196 15327208
-2.0774617 0.41310298 0.67582023 15392745
-2.0652099 0.41717523 0.67482758 15327210
-2.0540485 0.41985899 0.6765275 15327211
-2.0463994 0.41986609 0.67947239 15261675
-2.0334027 0.42268667 0.67941993 15196140
-2.028348 0.42134833 0.6821627 15130603
-2.0124433 0.42329115 0.68141049 15393519
-1.9983795 0.42283309 0.68115693 15459055
-1.983487 0.42149854 0.68182725 15458536
-1.9722985 0.42299399 0.67955142 15524330
-1.9661173 0.41974217 0.68182379 15459052
-1.9554324 0.41937676 0.68137842 15459307
-1.9434634 0.42089915 0.67900097 15327979
-1.9358554 0.41985139 0.67972189 15328492
-1.9252115 0.41990352 0.67991376 15459305
-1.9131922 0.42185155 0.67832261 15590378
-1.9086286 0.41842324 0.68226504 15656429
-1.8949957 0.42119834 0.68043596 15590894
-1.8818285 0.42213401 0.67967153 15724019
-1.8786753 0.41962662 0.68247366 16709112
-1.8605692 0.42370984 0.677508 16711422
-1.8415723 0.41606572 0.67719412 13546946
-1.8359709 0.4170188 0.67342961 14338776
-1.5820999 0.40943268 0.67283022 15919345
-1.5743332 0.4114736 0.67583787 15919602
-1.5642378 0.41396004 0.67447191 14343403
-1.5536416 0.41473684 0.67391551 15129564
-1.5445518 0.41327518 0.6762296 14997209
-1.5340092 0.41524535 0.67410088 15129308
-1.524466 0.41392231 0.67571324 14997463
-1.5147982 0.4148235 0.67451108 15064030
-1.5050312 0.41449684 0.67416477 15063514
-1.4945457 0.41390455 0.67362022 14997976
-1.4842633 0.41435441 0.67293656 14734549
-1.4754963 0.41406623 0.67293978 14997720
-1.4649783 0.41313061 0.67301458 14997978
-1.455408 0.41211393 0.67274833 14997466
-1.4461566 0.41182733 0.67134202 15128280
-1.4383311 0.410052 0.67169923 15193041
-1.4108052 0.40948012 0.66937017 9337209
-1.4084114 0.40875423 0.67001045 9664373
-1.3937449 0.41014877 0.66880786 14471850
-1.3823084 0.40845326 0.67090851 14536625
-1.375268 0.40929177 0.67124408 12166318
-1.3623233 0.4129574 0.67104185 13088456
-1.3552028 0.41334429 0.67319304 13487068
-1.0823494 0.40895647 0.66842276 15460592
-1.0763956 0.40964055 0.66740209 15988731
-0.75351876 0.40952274 0.66843891 15130598
-0.74444598 0.40942103 0.66913331 15393767
-0.73300672 0.40972435 0.67032361 15328233
-0.7236445 0.40961444 0.66974235 15261411
-0.71480703 0.40955085 0.66932791 15394023
-0.70577228 0.40927523 0.66841042 15459303
-0.69511467 0.40812275 0.66883361 15261925
-0.68476409 0.40860716 0.66906267 15393509
-0.67576069 0.4087292 0.6694721 15393768
-0.66445065 0.40890956 0.66870946 15459819
-0.65718561 0.40794176 0.66822964 15327461
-0.64775622 0.40771452 0.66472924 14932958
-0.64152658 0.40681064 0.66094249 15196902
-0.44076771 0.41335446 0.67073721 14670557
-0.43410057 0.41487768 0.67541224 16052722
-0.4257963 0.41756502 0.67806584 16315637
-0.41773552 0.41877526 0.67829782 16183797
-2.1333454 0.41963649 0.66656256 14997988
-2.0519891 0.42362231 0.67064911 15262699
-2.049943 0.42260885 0.67318159 15261934
-2.0352821 0.42586771 0.67424232 15196136
-2.0223117 0.42843714 0.67461824 15327720
-2.0189292 0.42614642 0.67806262 15327724
-2.0041025 0.42810345 0.67666531 15393003
-1.9913995 0.42891395 0.67567098 15392746
-1.9890864 0.42670861 0.67752773 15327466
-1.9765555 0.42708266 0.67621857 15327726
-1.9638255 0.42614451 0.67523772 13613760
-1.9520983 0.42637849 0.67410976 13547964
-1.9463875 0.42479038 0.67513549 13943238
-1.937958 0.42448151 0.67471457 13810880
-1.9162273 0.42508563 0.67502677 15129572
-1.901317 0.42609286 0.67470878 15064291
-1.8970315 0.42474666 0.6761747 14471122
-1.8852733 0.42687935 0.67450309 14537172
-1.8751851 0.42518407 0.67624223 14471377
-1.8639877 0.42617649 0.67474896 13811649
-1.8564667 0.42356646 0.67651266 13680318
-1.8467594 0.42468792 0.67332047 13679804
-1.8371232 0.42418963 0.66972673 14404034
-1.5537957 0.41778985 0.66989458 10398407
-1.5445495 0.41812217 0.67053717 14996436
-1.5313408 0.42002407 0.66918415 14799575
-1.5261608 0.41911674 0.67028117 14799569
-1.5141931 0.41851616 0.67085445 14602964
-1.508525 0.41950333 0.66998082 14603220
-1.4947248 0.41921332 0.66900289 14865618
-1.4774272 0.41881746 0.66829163 14733773
-1.3565081 0.41633487 0.6678924 12296882
-0.43925327 0.42131609 0.66825247 15855344
-0.43436438 0.4218525 0.67094398 16249845
-0.42536893 0.42378241 0.67332596 16184053
-0.41826594 0.42102668 0.67619544 16249076
-2.0229867 0.42941174 0.67225033 13285566
-2.0029104 0.4299632 0.67388213 13482427
-1.9964288 0.43237227 0.67191201 13548479
-1.9836358 0.43276578 0.67075205 13548476
-1.9748507 0.43205899 0.67009246 13548222
-1.9654495 0.43007243 0.67161268 13613756
-1.9560609 0.43231475 0.668688 13548733
-1.9449978 0.43117771 0.66889083 13679550
-1.9351854 0.43066609 0.66919011 13745087
-1.9255602 0.42869008 0.67087853 13614528
-1.9161662 0.43066674 0.6689446 13680321
-1.9049489 0.42994672 0.67033124 13943234
-1.8957783 0.43018183 0.67031419 13746112
-1.8871206 0.42960238 0.67157668 13680063
-1.8749603 0.43189371 0.66923839 13943750
-1.8673348 0.43018547 0.67046779 13746369
-1.8549802 0.43067443 0.6690017 13680318
-2.020221 0.43350938 0.66703087 13351354
-2.0142834 0.43453112 0.66712058 13416890
-2.0049756 0.43493342 0.66810459 13613757
-1.9973673 0.43607673 0.66769546 13679549
-1.9768827 0.43535382 0.66770381 13416896
-1.9620227 0.43646285 0.66522008 13548732
-1.9424056 0.43568316 0.66454607 13679553
-1.5111731 1.0191189 0.67199796 196866
-1.5124248 1.0213736 0.67078179 393474
-1.5117823 1.0213934 0.67245078 196866
-1.5184057 1.037693 0.67486429 393732
-1.5162178 1.035181 0.67704868 393732
-1.5213736 1.0439297 0.67687947 328452
-1.5190797 1.0420662 0.67994106 459525
-1.1110432 -0.21330398 0.68428069 3486542
-1.1078607 -0.21185429 0.68829691 2301495
-1.1124746 -0.20957336 0.68129635 3092555
-1.1080238 -0.20533584 0.68709177 1512225
-1.1121277 -0.19265299 0.68198568 723476
-1.1084555 -0.19536148 0.68682051 854030
-1.1161836 -0.18322113 0.67841595 657929
-1.1124058 -0.18450023 0.68392414 657677
-1.1078684 -0.18756811 0.68975139 526088
-1.1139643 -0.17521617 0.68526328 526089
-1.1104497 -0.17698976 0.68986773 460294
-1.1212513 -0.16269803 0.68237293 328964
-1.1168183 -0.16550523 0.68613291 328966
-1.1276464 -0.15453963 0.67932212 328454
-1.1233305 -0.15476102 0.68377399 393990
-1.1182916 -0.15695086 0.68811882 853252
-1.1311905 -0.14016208 0.68181962 1580843
-1.1261023 -0.14455131 0.68558758 1709601
-1.1324805 -0.13543592 0.68277919 921635
-1.1272415 -0.13517641 0.68835598 657428
-1.1347371 -0.12467021 0.68474579 394759
-1.1297582 -0.12788157 0.68896353 460298
-1.1412289 -0.11300387 0.68247598 525579
-1.1369302 -0.11579938 0.68639392 460295
-1.1314269 -0.12033574 0.69069231 656653
-1.1431071 -0.10412802 0.68435538 656651
-1.138148 -0.10879924 0.68828481 591630
-1.1507118 -0.091180272 0.68215609 722699
-1.1469623 -0.09468694 0.68492597 591885
-1.1534299 -0.083256498 0.68363082 657673
-1.1486714 -0.087377198 0.6880455 592134
-1.1606359 -0.074422978 0.6807031 788496
-1.1560192 -0.074997589 0.68649387 592392
-1.1684239 -0.061410684 0.68217272 788749
-1.1648443 -0.064899832 0.68412453 657418
-1.1590781 -0.068260632 0.68854994 657672
-1.1737335 -0.053840809 0.68342048 657677
-1.1685237 -0.057306539 0.68718415 657675
-1.1826682 -0.044899505 0.68126547 789012
-1.1780277 -0.04635781 0.68648219 788751
-0.68787277 -0.04018097 0.68007022 1248785
-0.68590325 -0.043491863 0.68252766 1314070
-1.1976665 -0.028450407 0.67856336 328708
-1.1916648 -0.030936496 0.68326139 263172
-1.1867988 -0.036583096 0.68510914 854543
-1.1811031 -0.039414138 0.6907922 723472
-0.68783945 -0.036722522 0.6819253 1183243
-0.68719703 -0.036863014 0.68314099 1576467
-1.2030555 -0.020374687 0.68086451 460039
-1.1992635 -0.021423148 0.68458885 788236
-1.1906492 -0.0287835 0.68804884 985358
-0.69163638 -0.022319695 0.68209213 1248539
-0.68837965 -0.024521546 0.68751305 1183249
-1.2243514 -0.010839314 0.6805371 1183503
-1.2135613 -0.012404131 0.68145376 656903
-1.2059265 -0.014882437 0.68424594 657162
-1.1988062 -0.018637456 0.68798131 985877
-1.1936905 -0.0217769 0.69151908 1050901
-0.69314218 -0.012301981 0.68404812 1117458
-0.69243979 -0.0140458 0.68466341 1183248
-0.68990153 -0.015053415 0.68944472 1183759
-1.2315848 -0.0067989281 0.68676376 1905682
-1.2241921 -0.0058411006 0.68619269 1445388
-1.2151759 -0.0066802721 0.68641573 1775637
-1.2088792 -0.0089567779 0.68788868 1313560
-1.2032861 -0.0098848492 0.69181573 985873
-0.69667971 -0.0046225204 0.68034405 986131
-0.69451517 -0.0044519645 0.68524665 1117454
-0.69128072 -0.0096490541 0.68942827 1052938
-1.2289079 -0.0035773437 0.69001353 1905936
-1.2153484 -0.0012624224 0.69224977 3749422
-1.2100036 -0.0035306015 0.69255954 2035493
-0.69656187 0.0047426862 0.68431091 855313
-0.69746381 0.015257186 0.68626297 1052175
-0.7004987 0.025612492 0.6830613 1118482
-0.6983583 0.024995113 0.68715578 1052691
-0.70230842 0.036192302 0.68392164 1183511
-0.69969249 0.031884249 0.68724728 1511442
-0.70771182 0.048319124 0.67969412 1183506
-0.70417899 0.045846984 0.68473649 1118743
-0.70844305 0.056554168 0.68269926 1184277
-0.70599812 0.054699402 0.68615985 1249814
-0.71060044 0.065698646 0.68396342 1315351
-0.70801759 0.064305149 0.68823117 1315863
-0.71336275 0.075242393 0.68436533 1381661
-0.71042687 0.073601536 0.68930835 1316383
-0.71651489 0.083412021 0.68217951 1643806
-0.71150571 0.079257868 0.6905663 1971486
-0.71964782 0.096437477 0.68335074 1644839
-0.7182098 0.093999587 0.68496728 1645092
-0.72283131 0.10705788 0.6846782 1973547
-0.72067541 0.10698344 0.68947005 2104882
-0.72859031 0.1188665 0.67964625 2432809
-0.72518557 0.11547969 0.68528432 2171434
-0.73090148 0.12931494 0.68156922 2631214
-0.72790271 0.12331897 0.68434036 2303022
-0.73150301 0.13508701 0.68429768 2434605
-0.73338538 0.14413214 0.68530226 2565159
-0.74112165 0.1699954 0.68054044 2169380
-0.73734117 0.16743785 0.68791157 1578782
-0.74159896 0.17591144 0.68169087 1709086
-0.73828214 0.174578 0.68723142 1381402
-0.74129224 0.18489118 0.68339586 1315867
-0.73684961 0.1819848 0.6894384 1381143
-0.74323094 0.19513474 0.68022096 921113
-0.92368597 0.29379091 0.68742412 2099011
-0.87491012 0.28994989 0.6853283 4145774
-0.76699007 0.29108042 0.67770159 12626857
-0.92268854 0.2941151 0.68201685 2429774
-0.78075218 0.29976687 0.67962271 13088691
-0.77358466 0.29803705 0.68104231 12956848
-0.7651251 0.29695743 0.68210042 12364962
-0.75621873 0.29739615 0.68036145 11970461
-0.74916989 0.29851803 0.67776817 14213339
-0.78872871 0.3071757 0.67905432 13616065
-0.78407341 0.306117 0.68226147 12693414
-0.77580249 0.30465358 0.6854077 12034710
-0.76603138 0.30330893 0.68569332 11508104
-0.75679439 0.30364683 0.68445307 12826794
-1.1622056 0.31794736 0.6887722 2818875
-1.1606621 0.31855568 0.69111931 3613510
-0.79318005 0.31798092 0.68277431 13484712
-0.79172844 0.31616694 0.68305653 13418168
-0.7868644 0.31260899 0.68607265 12561311
-0.77822244 0.31147957 0.69115049 11835778
-0.61055398 0.33175251 0.70016867 10128781
-1.2126756 0.33022869 0.67615938 8747586
-1.2025868 0.32865155 0.67645204 5718822
-1.1941127 0.32984746 0.67679435 6570799
-1.1806344 0.33017245 0.67752939 3608862
-1.1721491 0.32722244 0.68003201 1314587
-1.1655377 0.32564041 0.68585861 6110791
-1.1599202 0.32542685 0.69055927 10985111
-0.79428464 0.32439956 0.68629849 13746624
-0.79010582 0.31998572 0.68937767 13417917
-0.61241949 0.33632132 0.69442964 11642785
-0.60463303 0.33314493 0.69460803 12168616
-0.59517634 0.33479097 0.69406497 12234153
-0.5852589 0.33452553 0.69487286 11904927
-0.5750367 0.33484846 0.69577241 10786443
-0.5654999 0.33598375 0.69614983 10588805
-0.55795348 0.33453175 0.69822598 10261391
-0.53164375 0.33761948 0.69711423 10529955
-0.5252105 0.33598113 0.69932133 11905435
-0.51570928 0.33658069 0.69901431 9403010
-0.50352162 0.33868769 0.69866312 13023664
-0.49362284 0.34050289 0.69857574 9209465
-0.48777628 0.33967054 0.69975686 10982252
-1.8186697 0.34384841 0.69523144 16645882
-1.7963194 0.34536389 0.69438165 16514813
-1.7825837 0.34631804 0.69586837 16448765
-1.2191739 0.33871335 0.67635345 12036530
-1.2134342 0.33617774 0.67876267 12563628
-1.2042921 0.33513886 0.6786924 11246749
-1.1930419 0.33608857 0.67765957 10590364
-1.1831172 0.33671433 0.67779392 11309719
-1.1737854 0.33404905 0.67958778 9398878
-1.1661944 0.3344256 0.68481743 13749958
-1.15898 0.33546621 0.69094819 14342634
-1.1533737 0.34064636 0.69577265 12762061
-0.79526907 0.33074579 0.68954396 13945292
-0.72996157 0.33903512 0.6823107 15000036
-0.61884981 0.34305772 0.69285429 13880532
-0.61183459 0.33984676 0.69079465 12168619
-0.60421836 0.33872822 0.68994838 12234154
-0.5952158 0.3388494 0.69001579 12233897
-0.58531797 0.33906385 0.69075078 11639964
-0.57613981 0.34000331 0.69061923 9342350
-0.56364954 0.3412317 0.69048238 11247258
-0.55597985 0.34063521 0.69142765 10587789
-0.54615343 0.34136012 0.69129258 11838107
-0.53503841 0.34066635 0.69306725 9664629
-0.52481186 0.3411465 0.69371885 9866901
-0.51523554 0.34253079 0.69317025 9729143
-0.50609291 0.34388003 0.69356734 10261133
-0.49654162 0.34351382 0.69486123 9534851
-0.48786068 0.34516934 0.69445902 11248802
-0.47867838 0.34434104 0.69603181 9403768
-0.47124028 0.34561047 0.69810402 10525078
-0.46826491 0.34642273 0.699821 10655638
-1.820237 0.34538817 0.69399643 16711420
-1.8137947 0.35049912 0.68896693 16513788
-1.8062887 0.34872016 0.68973386 16316154
-1.795351 0.34888625 0.69033062 16645372
-1.7825775 0.35060063 0.69105697 16645629
-1.777817 0.34963214 0.69290388 16645372
-1.7687137 0.3518112 0.69257998 16711422
-1.7534827 0.35361764 0.6938895 16711422
-1.7427006 0.35558209 0.69352138 16711422
-1.2187371 0.34067816 0.67648387 11970226
-1.2153296 0.34400085 0.67874533 13023680
-1.2033243 0.3426083 0.67909008 13681614
-1.1925566 0.34296909 0.67782611 13482696
-1.183112 0.34140277 0.67781085 15065063
-1.1761582 0.3414728 0.67929059 15328756
-1.164443 0.34538972 0.6857447 13420765
-1.1588881 0.34504381 0.69051319 12762834
-0.96793914 0.35122907 0.69047534 3222348
-0.96423119 0.3534047 0.68784553 3557972
-0.9548316 0.34660897 0.68782651 394000
-0.72866154 0.34448618 0.68238336 14407135
-0.622141 0.34787986 0.68793809 14143701
-0.61828822 0.34648743 0.68692517 14275287
-0.60928303 0.34393224 0.68419933 14143960
-0.59850615 0.34330824 0.68377393 14012119
-0.58111298 0.34528226 0.68386388 12958927
-0.57459766 0.34571686 0.68395352 13421009
-0.56095505 0.34714487 0.68462211 9536133
-0.55654651 0.34622616 0.68567502 11904925
-0.54547435 0.34665066 0.68651295 11115151
-0.50466436 0.34877291 0.68825942 11707275
-0.49318111 0.34936744 0.6892674 11379597
-0.48410237 0.35045308 0.68904996 9469320
-0.47745493 0.3498843 0.69022095 10327445
-0.47011918 0.35253805 0.69146192 10784382
-0.46693897 0.35320067 0.69369644 7622996
-1.8215492 0.35671133 0.68634814 15722730
-1.816252 0.35386255 0.68656051 15985902
-1.8039171 0.35676312 0.68315536 16183284
-1.7966241 0.35450324 0.68471301 16183540
-1.7865963 0.35603452 0.68466455 16381174
-1.7753005 0.35666287 0.68668324 16117746
-1.7633047 0.35886505 0.68720877 16711422
-1.7560977 0.35761639 0.68974805 16711422
-1.7454574 0.36003959 0.68878525 16580092
-1.7344954 0.3594397 0.69014871 16250360
-1.7247802 0.35943645 0.69042754 16315899
-1.7153442 0.35967487 0.69067025 16580350
-1.7044071 0.36104256 0.69015962 16711422
-1.6954193 0.36328787 0.68853265 15007486
-1.6757514 0.36152095 0.69078153 10703062
-1.6445575 0.36209264 0.68972033 11473329
-1.6410816 0.36113456 0.69195688 14120910
-1.2197027 0.35009563 0.67643481 12365508
-1.163744 0.35271272 0.68568331 12564683
-1.1599582 0.35606921 0.68983632 12631245
-0.9699803 0.35265532 0.69251102 1970491
-0.96523815 0.35806361 0.68741947 2634052
-0.95248902 0.35316867 0.6852811 787994
-0.94443399 0.35592151 0.68454224 920613
-0.93556178 0.35617965 0.68687594 2101806
-0.92546511 0.35951704 0.68999541 8791853
-0.91931647 0.36184168 0.68977952 7285830
-0.73281437 0.35646486 0.68520021 14209502
-0.73040199 0.35171843 0.68645233 13946840
-0.62255168 0.35182753 0.68151951 14143961
-0.61724341 0.35023722 0.6807816 14209497
-0.60572296 0.34876326 0.67829657 14143961
-0.59489334 0.34891486 0.67899579 13814223
-0.58444262 0.34997493 0.67901027 12036531
-0.57370287 0.3506383 0.67883581 12169662
-0.56560743 0.34969202 0.68002331 13616848
-0.5539735 0.35154319 0.67916626 13024455
-0.54400218 0.35128146 0.68030357 13355726
-0.53480351 0.35073629 0.68141055 12037813
-0.52402169 0.35140747 0.68092579 12763339
-0.51609784 0.35162413 0.68149555 14011858
-0.50318652 0.35237366 0.68230718 13224917
-1.8338072 0.36213434 0.68912506 15657198
-1.8236027 0.36017022 0.68537349 15786728
-1.8176672 0.36163357 0.68207252 15721193
-1.8022721 0.3605473 0.67970002 15523815
-1.7961179 0.36030406 0.67984426 15523557
-1.7809871 0.36076739 0.68132502 15326948
-1.7746079 0.36322275 0.68023252 14668765
-1.7646739 0.36377975 0.68181366 14536922
-1.7540635 0.36341944 0.68396312 13942736
-1.7473651 0.36381567 0.68481809 16248821
-1.7353361 0.36497518 0.68472856 15855350
-1.7232567 0.36569148 0.68454319 15983094
-1.7115613 0.36540341 0.68595719 16056061
-1.706442 0.36398646 0.68706149 15725308
-1.696135 0.36576551 0.68580878 12218570
-1.6838914 0.36598861 0.6855641 13074643
-1.6752133 0.36533347 0.68657374 12281013
-1.663534 0.36513132 0.68603855 11684760
-1.6558352 0.36396295 0.68688279 12152479
-1.6458782 0.36539912 0.68620157 13002435
-1.6364067 0.36789539 0.68593061 14461136
-1.6283933 0.37049192 0.6879943 15528444
-1.6213224 0.3751775 0.68891704 10889124
-1.3521419 0.37844861 0.70014483 9207174
-1.3497529 0.37753651 0.7010057 10135976
-1.1635938 0.36564088 0.6849249 11380925
-1.1608889 0.36218485 0.68875182 12629703
-1.096729 0.37192255 0.69317919 14076361
-1.0312085 0.37274465 0.69301081 14076358
-1.0205846 0.37368065 0.69295281 13878466
-0.96606702 0.3645879 0.68566167 4266285
-0.94424367 0.35995144 0.68106639 1117741
-0.93446141 0.36227223 0.68071157 1381948
-0.9247945 0.36256498 0.68474472 6961199
-0.91689497 0.36339062 0.6876483 8279099
-0.88388711 0.36747018 0.68996763 4864889
-0.87484229 0.36987063 0.6892398 5656945
-0.73713958 0.36519054 0.6854288 14209500
-0.60333771 0.35322213 0.6732437 14275290
-0.59224194 0.35513648 0.67333901 14012116
-0.58529651 0.35556349 0.67355478 14012115
-0.5722937 0.35544115 0.67381901 13484231
-0.56401235 0.35528919 0.67460912 13945811
-0.55515438 0.35608992 0.67470229 13090502
-0.54254806 0.35624316 0.67519033 12170182
-0.53413892 0.35635546 0.67548686 12236223
-0.52407855 0.35675275 0.67546439 12300732
-0.51412314 0.35636571 0.6767081 12169404
-0.50308865 0.35755688 0.67708677 12301242
-0.49369344 0.35750544 0.67785853 12630975
-0.48235869 0.35834229 0.678608 12234678
-0.47150734 0.36045521 0.68042529 12105405
-0.46212029 0.36437076 0.68329012 12761526
-0.45652312 0.36628303 0.6869809 11773617
-1.8296072 0.37587747 0.6815092 15985392
-1.7695506 0.36584482 0.67858666 14272212
-1.7634763 0.36661133 0.67947751 12890324
-1.7547222 0.37005752 0.67752963 11558310
-1.7441015 0.3692624 0.67942744 11487893
-1.7349006 0.36911112 0.6802367 11617424
-1.7256689 0.36959666 0.68010265 12020374
-1.7144922 0.37015533 0.68055719 12151965
-1.7051015 0.37118995 0.68029845 12419760
-1.6950462 0.37088364 0.68082434 11689370
-1.6851946 0.37052298 0.68118173 11359393
-1.6738787 0.3713201 0.67999125 12020909
-1.6640807 0.36985415 0.68138474 12083605
-1.6541405 0.36885509 0.68169636 12675989
-1.6440809 0.37037039 0.68078512 13609130
-1.6343505 0.37162879 0.68167412 14340044
-1.6244483 0.37420887 0.68448853 14864341
-1.6176844 0.37848109 0.68676311 10373775
-1.6076473 0.38710982 0.68562484 11439025
-1.3300644 0.38228467 0.70298624 13157813
-1.32493 0.38166562 0.70516276 13881011
-1.1635591 0.37126264 0.6808883 13024960
-1.151078 0.3791056 0.68996781 15000032
-1.1342542 0.38148633 0.69062304 15131111
-1.1252009 0.38035381 0.68976986 15262952
-1.1138804 0.37883785 0.68860543 15592433
-1.1028116 0.37624037 0.6897465 14998492
-1.0941857 0.37650022 0.68967557 14603218
-1.0853103 0.37766075 0.68879247 14208464
-1.0751748 0.37822741 0.68861139 14340302
-1.0651996 0.37746951 0.68882549 14471890
-1.0549437 0.37836763 0.68722874 14406096
-1.0455742 0.37814605 0.68709683 14274253
-1.034296 0.37753007 0.68784213 14273741
-1.0251174 0.37766087 0.68825769 14207944
-1.0165224 0.37843788 0.68894154 14207944
-1.0061324 0.37871569 0.69095564 13549242
-0.98027885 0.38044789 0.68631905 12759467
-0.97454751 0.37586659 0.68574327 12232096
-0.96617496 0.37340471 0.68162429 9861983
-0.95978737 0.37362713 0.67795634 3671865
-0.87365502 0.37099877 0.68917531 5986928
-0.85339671 0.37631992 0.68933439 8878978
-0.74294251 0.37632832 0.68368137 14011862
-0.73832875 0.37308481 0.68730426 14143703
-0.71253252 0.38196245 0.69430745 13153971
-0.70561779 0.38376802 0.6941123 13153970
-0.69721884 0.38400114 0.69496632 12957354
-0.68496752 0.38415006 0.69488209 13154479
-0.67655742 0.38509604 0.69476163 12957361
-0.65171736 0.38102371 0.68960267 11312268
-0.64864606 0.37751263 0.68901265 10522753
-0.52628273 0.36107519 0.67053157 14537939
-0.51225376 0.36211264 0.67122793 12367550
-0.50209832 0.36266938 0.67213142 13024704
-0.49321026 0.36371815 0.67236984 11445172
-0.48189577 0.3639892 0.6735236 13222855
-0.47114143 0.36677557 0.67505974 12038327
-0.46175328 0.36950767 0.6790024 13947349
-0.45435718 0.37437925 0.68380767 12630204
-0.44760808 0.37908277 0.68834412 14539229
-1.836125 0.3822884 0.68534923 15853811
-1.829429 0.3784667 0.68090206 16116206
-1.756951 0.37372482 0.6732775 11955869
-1.6948522 0.37623683 0.67584002 11220624
-1.6860292 0.37472767 0.67692059 13400213
-1.6759467 0.3761026 0.67530406 13409957
-1.6591284 0.37543505 0.67602468 13943736
-1.6137707 0.38168448 0.68488139 9387630
-1.6061184 0.38746905 0.68573743 9718674
-1.4277849 0.39139751 0.69210839 16447483
-1.4071141 0.38958335 0.69137239 11727102
-1.3934022 0.38995647 0.68985194 7492210
-1.384824 0.39008608 0.68894869 5320252
-1.3751523 0.38914427 0.68955648 5454135
-1.3635023 0.38890889 0.69081569 8022903
-1.3536311 0.39072374 0.69128484 11316407
-1.348718 0.39195302 0.69204164 12697285
-1.1535599 0.38451827 0.68643039 15393765
-1.1458857 0.38566026 0.6867153 15131625
-1.1353134 0.38611993 0.68623471 15394539
-1.1247905 0.38501555 0.68544871 15591918
-1.1152954 0.38383281 0.68470019 15789554
-1.1061293 0.38402605 0.68400854 15987188
-1.0955772 0.38376853 0.68411642 16184310
-1.0842779 0.38433784 0.68359011 15789292
-1.0749718 0.38368005 0.68388867 15394277
-1.0653158 0.38433397 0.68268299 15789549
-1.0554053 0.38258219 0.68327385 16316152
-1.0456989 0.38256913 0.68286788 15723500
-1.034132 0.38218209 0.68295342 15591656
-1.0248322 0.38279638 0.68303382 16052721
-1.0142813 0.38364449 0.68417323 16513530
-1.0030265 0.38718116 0.68353707 16513530
-0.99556828 0.38459 0.68685693 16382458
-0.98516989 0.38602871 0.68476111 14735587
-0.97556263 0.38411564 0.68176746 13880007
-0.96750432 0.37988797 0.67904216 12693405
-0.96094686 0.37986034 0.67528951 10654059
-0.7929529 0.39016429 0.68380696 14802368
-0.78473556 0.39052257 0.67827022 14405566
-0.77701122 0.3910642 0.67556274 14208949
-0.76218647 0.38868013 0.67645174 13353149
-0.75185978 0.38582641 0.67927969 14011085
-0.74333155 0.38189989 0.68038195 14076878
-0.71466517 0.38855219 0.68887895 13154992
-0.70617902 0.38918695 0.68896186 13154225
-0.69554895 0.38869497 0.69041842 13219761
-0.6853236 0.38974562 0.68921548 13088431
-0.67417145 0.39057785 0.6896925 13022639
-0.6631583 0.3887313 0.68938911 12562081
-0.65413964 0.38618073 0.6853801 11246477
-0.64959913 0.38060606 0.68515939 10259068
-0.47113121 0.37089977 0.67076027 12104890
-0.45194197 0.38178694 0.68094021 13025221
-0.44628567 0.3857533 0.68627638 14604512
-0.43998566 0.3871595 0.69073427 14604510
-2.1444585 0.39798698 0.68832684 15528175
-2.1209414 0.40154541 0.68559754 15195115
-2.0803635 0.40324724 0.6921308 15327979
-2.0314617 0.40581763 0.69852459 15392748
-2.0210779 0.40865368 0.69555461 15524077
-2.0169058 0.40750539 0.69625765 15523821
-1.6020488 0.39042076 0.68363708 10377106
-1.5952621 0.39563698 0.68316901 13611198
-1.5869075 0.39835835 0.68865567 16182261
-1.5770997 0.40029374 0.69028002 15986165
-1.5659066 0.40059137 0.69103307 15986677
-1.5566127 0.40146813 0.68996608 16183797
-1.5488781 0.40258783 0.68812716 16184310
-1.5358397 0.40074781 0.68925697 16249591
-1.5238838 0.39914986 0.69004679 16250103
-1.5161413 0.39952385 0.68917626 16315897
-1.5048366 0.39857113 0.6893093 16315895
-1.4946386 0.39868867 0.68845969 16315895
-1.4846081 0.39834073 0.68792498 16381432
-1.4755532 0.3986682 0.68703371 16250103
-1.4646915 0.39764255 0.68729311 15524837
-1.4558177 0.39706117 0.68751848 15788523
-1.4452124 0.39664769 0.68749458 15327202
-1.4347855 0.39683858 0.6862241 15985902
-1.4250723 0.3955054 0.68640178 15000803
-1.4153497 0.39596906 0.68484777 10528708
-1.4048198 0.39450884 0.68521827 7557514
-1.3954619 0.39424053 0.68459785 8481912
-1.3850225 0.39527223 0.68405372 9599854
-1.3754168 0.39525804 0.68390054 11442823
-1.3662149 0.39454013 0.6855092 11049089
-1.3560487 0.39684287 0.68610042 10324093
-1.3482815 0.39797989 0.68825728 11181475
-1.3402828 0.3947567 0.69342583 10575998
-1.1415699 0.38950521 0.68248212 15525869
-1.1371702 0.3908841 0.68146628 15525612
-1.1231523 0.39224675 0.67927486 15921397
-1.1031933 0.38972664 0.68008626 16118774
-1.0925573 0.39037743 0.67968118 16447995
-1.0843045 0.39019498 0.67939311 16579579
-1.0750787 0.38832974 0.68021172 16513786
-1.0646366 0.38986087 0.67804193 16447994
-1.0582362 0.38925159 0.67791808 16513786
-1.0018382 0.39069366 0.67968553 16513786
-0.99861205 0.38984156 0.68120623 16645115
-0.98501641 0.39119995 0.68028814 14669537
-0.97736639 0.388749 0.67950815 15525607
-0.79999542 0.3932316 0.68868905 16049818
-0.79318219 0.39318004 0.6884551 16579498
-0.78537035 0.39883474 0.68235326 16185504
-0.77158904 0.39377737 0.67765152 14934462
-0.76275563 0.39340115 0.67739463 14472661
-0.751737 0.39262342 0.67789465 14932959
-0.74190199 0.39011979 0.67828923 14998753
-0.73323232 0.39243501 0.68110651 15064803
-0.72372705 0.39347544 0.68205583 15130339
-0.71400774 0.39299518 0.68366349 14933215
-0.704579 0.39367938 0.68408483 15064800
-0.69535804 0.39402366 0.68393236 14603478
-0.68445551 0.39463055 0.68374395 14603735
-0.67669994 0.39405879 0.68479508 14933218
-0.66421515 0.3938534 0.68401712 13550270
-0.6556108 0.39279252 0.67975003 12036009
-0.65279329 0.39334509 0.67698371 11576738
-0.44288823 0.39451373 0.68323302 14275291
-0.43841487 0.39519906 0.68581426 13617361
-2.1383979 0.40241775 0.6828534 15458798
-2.1260006 0.40197816 0.68517119 15260649
-2.1134708 0.4015117 0.68476903 15261415
-2.1024365 0.40644246 0.6808148 15261671
-2.0982499 0.40265468 0.6858288 15261419
-2.0844157 0.40545425 0.68577629 15327468
-2.0713308 0.41037995 0.68378001 15326954
-2.0651894 0.40935066 0.68987352 15326954
-2.0538123 0.41391188 0.68630981 15327212
-2.0471847 0.41109046 0.69234085 15327211
-2.034425 0.41211534 0.69214624 15261675
-2.0216763 0.41321591 0.69124562 15261674
-2.0174184 0.41099957 0.69298017 15392491
-2.0022297 0.41072828 0.69297105 15393003
-1.9989625 0.41107684 0.69218308 15393516
-1.985132 0.41117841 0.69204146 15196652
-1.9726645 0.41179359 0.69057614 15393265
-1.9652901 0.41086391 0.69052333 15459053
-1.9569715 0.40939608 0.69161791 15459052
-1.944092 0.41043496 0.68983263 15327979
-1.9347932 0.40965807 0.69055247 15393775
-1.925889 0.41046399 0.69023794 15525104
-1.9127784 0.41107696 0.69040394 15525103
-1.9045643 0.41160575 0.69073397 15524845
-1.8972811 0.41099736 0.69178247 15721709
-1.8447158 0.41030234 0.68339181 14270672
-1.5921595 0.39805603 0.68165362 7961502
-1.5824989 0.40382373 0.68247801 16052213
-1.5738767 0.40474746 0.6847688 16051441
-1.5652586 0.40488026 0.68580896 15919852
-1.5535959 0.40451229 0.68591028 15458531
-1.5420018 0.4060894 0.68415821 15392994
-1.5341593 0.40536553 0.68430936 15128790
-1.5242767 0.40509334 0.68415689 15195098
-1.5150197 0.4045656 0.68392599 14865877
-1.5053608 0.40476039 0.68301374 14932182
-1.4983152 0.40350819 0.68396121 15459041
-1.4846408 0.40439591 0.68214369 15063770
-1.4756092 0.40230322 0.68346661 15064026
-1.4648705 0.40299496 0.68223977 14997977
-1.4543279 0.40197924 0.68249696 14932185
-1.4462653 0.40145305 0.68212706 15195873
-1.4361889 0.40057355 0.68202424 15789035
-1.4267107 0.40036571 0.68091536 10865628
-1.4183224 0.40043759 0.67977643 5463727
-1.3828959 0.40174592 0.67742395 12500911
-1.3775127 0.40021542 0.6794278 14340799
-1.3645335 0.40169114 0.68019694 10978439
-1.3561163 0.40238413 0.68202883 12161952
-1.3472587 0.40429038 0.68441147 15264234
-0.75020242 0.39774558 0.67468321 14933475
-0.74204177 0.39802963 0.67619097 15065317
-0.73377079 0.39888063 0.67733383 15196133
-0.72524917 0.40001109 0.67739421 15130340
-0.71578974 0.39884034 0.67880696 15064546
-0.70467377 0.39908877 0.67874533 15196643
-0.69544429 0.39842278 0.67885709 14999011
-0.68473804 0.39908734 0.67884094 15064546
-0.67469656 0.39907038 0.67958474 15130082
-0.66586393 0.39805588 0.67982626 14801118
-0.65709889 0.39771163 0.67705745 13878220
-0.65126026 0.39837274 0.67295444 13089468
-0.4388459 0.40200648 0.68082798 13354193
-0.43385044 0.40408272 0.68230379 15130851
-0.42542788 0.40774569 0.68627876 16250101
-0.41464922 0.40874028 0.68924701 16184053
-0.40639544 0.40886974 0.68931913 16118260
-2.0876467 0.4085342 0.67958111 15524074
-2.0733492 0.41126472 0.68112475 15327210
-2.0692077 0.41139579 0.68335968 15326954
-2.055948 0.41510856 0.68381947 15327211
-2.0495758 0.41349038 0.68817014 15261677
-2.0381763 0.41616523 0.68702435 15130606
-2.0237722 0.4191545 0.68542361 15261675
-2.0151885 0.4186438 0.68627667 15327468
-2.0052862 0.41658795 0.6876775 15393262
-1.9959581 0.41678482 0.68659109 14734556
-1.9884024 0.41406193 0.68927753 15327980
-1.972923 0.41589046 0.68572855 13745086
-1.963745 0.41623604 0.68496239 14602453
-1.9552164 0.41593021 0.68386066 13679551
-1.9461861 0.41344285 0.6863929 14734812
-1.9335157 0.41471228 0.68484849 14470609
-1.9259062 0.41542968 0.68440229 14404815
-1.915404 0.41504204 0.68547332 14075850
-1.9042869 0.4162606 0.6850096 14865882
-1.894587 0.41453889 0.68771279 15722226
-1.8880515 0.41706929 0.68536258 15985139
-1.8734092 0.41757551 0.6849196 15261662
-1.8664309 0.41568229 0.68622285 13745341
-1.8544487 0.41515931 0.68372512 13612713
-1.8468424 0.41476172 0.68128127 13810371
-1.5928005 0.39819595 0.67890567 4077931
-1.5719886 0.40591082 0.68393934 12568272
-1.5647671 0.40833023 0.681328 15389649
-1.5557802 0.40774351 0.68190163 14733263
-1.5345584 0.40999413 0.67970061 14733262
-1.5215012 0.41077757 0.6785934 14733777
-1.5159755 0.40921551 0.6795724 14734035
-1.382741 0.40460709 0.67455918 14282466
-0.43282863 0.40995079 0.67911464 15921137
-0.42492878 0.41234809 0.68257743 16250103
-0.41548911 0.41403547 0.68370879 16184053
-0.40811527 0.41168374 0.68604815 16118005
-2.0381746 0.41850802 0.68316412 13416630
-2.0234897 0.42183226 0.68208992 13547961
-2.0159719 0.42091736 0.6832546 13547963
-2.0060418 0.42220396 0.68210918 13548217
-1.9949789 0.42107555 0.68189496 13351869
-1.984656 0.42131123 0.68101913 13614014
-1.9751735 0.42106339 0.68057716 13679551
-1.9673544 0.42070022 0.68011522 13679295
-1.9546516 0.42020866 0.68017256 13679294
-1.9453169 0.41806257 0.68105322 13745345
-1.9325449 0.42206627 0.67708439 13810876
-1.9244907 0.42013514 0.67954254 13745343
-1.9126221 0.42245308 0.67755115 13745342
-1.90576 0.42035586 0.68010354 13811134
-1.8950866 0.41974229 0.68161404 13877694
-1.8850919 0.42094558 0.68069482 13746370
-1.8729808 0.41776356 0.68449903 13877702
-1.8649554 0.42121047 0.6800586 13746371
-1.85533 0.41926971 0.68075126 13744571
-2.0405374 0.42008272 0.67954665 13416893
-2.0318167 0.42459297 0.6763435 13351359
-2.0268073 0.42386827 0.67892456 13416890
-2.0143526 0.42746669 0.67650163 13482424
-1.9935806 0.42671824 0.67633498 13614013
-1.9872055 0.4259986 0.67665619 13613757
-1.9757968 0.42678234 0.67501336 13679293
-1.9119061 0.42550856 0.6741612 13680833
-1.5102141 1.0269142 0.68434834 131330
-1.5087712 1.0250167 0.68750411 196867
-1.5141141 1.0354714 0.68458235 196866
-1.5101804 1.0302458 0.69024271 131332
-1.5216231 1.0493734 0.68288428 393992
-1.5177833 1.0442199 0.68650037 196867
-1.5231816 1.0545682 0.68500221 459275
-1.5205113 1.0497562 0.68576086 327942
-1.5242814 1.0629169 0.68943924 525063
-1.5251087 1.0683053 0.69156927 721926
-1.1082312 -0.22118817 0.69116688 4013910
-1.1040879 -0.22240628 0.69562912 3288908
-1.1001946 -0.22167543 0.69930476 2433339
-1.1084857 -0.21750024 0.68892139 3486546
-1.1037124 -0.21438389 0.69384629 1973039
-1.0994669 -0.21498303 0.69916952 1512484
-1.1069562 -0.20551369 0.68842787 1511965
-1.1029965 -0.2046964 0.69416857 985874
-1.0991851 -0.20595828 0.69976693 723468
-1.1033348 -0.19550931 0.69472939 788238
-1.1006743 -0.19621149 0.69930136 657419
-1.1092628 -0.18047845 0.69021189 460807
-1.1052259 -0.18442826 0.69472849 460553
-1.1033674 -0.18507394 0.69773847 525841
-1.1107179 -0.17255199 0.69129986 394501
-1.1068631 -0.17537266 0.69590074 394247
-1.1030017 -0.17654417 0.70140767 328711
-1.1120944 -0.16472575 0.69261616 394246
-1.1084132 -0.16612865 0.69708151 525318
-1.1041965 -0.16724765 0.70288831 854022
-1.1193169 -0.15030879 0.68967241 1905423
-1.1137718 -0.15431842 0.6944564 1315094
-1.1089168 -0.15798707 0.69941616 1579804
-1.1198815 -0.14386299 0.69222909 1250076
-1.1159542 -0.14575607 0.69538516 1053212
-1.121323 -0.135681 0.69440323 460301
-1.1183809 -0.13472795 0.69791639 460042
-1.1255523 -0.1250921 0.69508839 525582
-1.1207569 -0.12563752 0.70051175 460294
-1.132607 -0.112331 0.69325852 656647
-1.1277647 -0.11690912 0.69647682 656653
-1.1397781 -0.10023718 0.69123667 526091
-1.135632 -0.10448141 0.69411796 591374
-1.1299893 -0.10879311 0.69839925 788237
-1.1418222 -0.0935506 0.69306231 591627
-1.136947 -0.097700447 0.69690508 656908
-1.1493549 -0.082274303 0.68974584 592135
-1.1441332 -0.084927768 0.69523495 591625
-1.141197 -0.082444079 0.70107865 722440
-1.152017 -0.074180983 0.69246209 657668
-1.1480399 -0.07633201 0.69650543 591879
-1.1425369 -0.07977885 0.70109576 787976
-1.1619922 -0.06187512 0.69124711 788489
-1.1558126 -0.065971218 0.69540733 722698
-1.150256 -0.069925383 0.69871193 788490
-1.1704108 -0.05200614 0.69045353 854547
-1.1646907 -0.055350095 0.69499785 657674
-1.1590581 -0.059035242 0.69925624 657674
-1.1791036 -0.03791523 0.69611198 394246
-1.1743783 -0.044999193 0.69445461 722960
-1.1699433 -0.047891237 0.69842726 788496
-1.1951464 -0.023911009 0.68535233 328963
-1.1864477 -0.03000455 0.69181067 459780
-1.1829296 -0.033903025 0.69433308 722699
-1.1791388 -0.038012251 0.69648087 788752
-1.1740085 -0.042400103 0.70088345 722960
-0.68186229 -0.031979006 0.69460094 1379855
-0.6789974 -0.034662537 0.69781268 1314828
-1.1963509 -0.020467047 0.68787992 460036
-1.1908406 -0.021678459 0.69404948 328965
-1.1859875 -0.027543753 0.69686508 985102
-1.1825361 -0.029655617 0.70168018 723210
-0.68462431 -0.024646383 0.69430107 1117973
-0.6802575 -0.026654759 0.69952089 1184014
-1.1999896 -0.013581983 0.69111711 394500
-1.1965758 -0.013683703 0.69525868 591369
-1.1909544 -0.019093486 0.69798529 985617
-0.68727982 -0.01558327 0.69401795 1052942
-1.2197282 -0.00026124847 0.69195896 1116682
-1.2135878 -0.0020580848 0.69152504 591111
-1.2047939 -0.0045651942 0.69536144 460295
-1.1982579 -0.0086935107 0.69843233 1116687
-1.1943634 -0.010599794 0.70193666 985622
-0.69065958 -0.0037188157 0.69318455 986638
-0.68855029 -0.0061585298 0.69629455 986897
-1.221769 0.0036593284 0.69567794 2234904
-1.2157534 0.0039226562 0.69674259 2367517
-1.2073793 0.0011613319 0.69838667 1313047
-1.2026248 -0.0010290951 0.70084113 1116946
-0.69197363 0.0055699558 0.6948036 986898
-0.69032067 0.0010491798 0.69625497 1183761
-1.2189447 0.0077261189 0.70015657 4997692
-0.69428557 0.015155578 0.69411588 1052185
-0.69523996 0.024095872 0.69441026 1052439
-0.698838 0.038081426 0.69180095 1249557
-0.69706535 0.032903861 0.69332534 1380633
-0.69993073 0.044960301 0.6928128 1381142
-0.69815016 0.045782071 0.69700015 1381398
-0.70262969 0.055764165 0.69327217 1380890
-0.69974357 0.053505797 0.69791359 1577500
-0.70490706 0.064921066 0.69475567 1447194
-0.70116413 0.060520027 0.69953501 1447453
-0.71079755 0.076756194 0.69041723 1382171
-0.70748484 0.073527046 0.69513696 1709848
-0.71278107 0.089333743 0.69408792 1775649
-0.70963019 0.079640821 0.69448835 1972508
-0.71816903 0.10085224 0.69071519 2039079
-0.71448982 0.095081367 0.69480592 1841702
-0.71935683 0.10598436 0.69171786 2104620
-0.71695745 0.10478224 0.696208 2105129
-0.72178066 0.11571749 0.69280064 2237228
-0.71891725 0.11288979 0.69682282 2236971
-0.72407901 0.12201305 0.69200444 2368302
-0.72962207 0.13827749 0.69043541 2565932
-0.7278679 0.13569395 0.69253612 2500139
-0.73089379 0.14351246 0.69094759 2499621
-0.7337991 0.16626319 0.69427615 1447194
-0.73039627 0.16829215 0.69974595 1380631
-0.73449433 0.17488569 0.69363809 1249819
-0.73235911 0.17338453 0.69690609 1249820
-0.73504072 0.18248825 0.69158792 1118228
-1.1597807 0.30857116 0.69240719 7701678
-1.1544979 0.30820942 0.69887483 14210786
-1.1493042 0.30947116 0.70341825 13881304
-1.1433381 0.31087327 0.70634562 13419981
-0.77870584 0.31048819 0.68974686 13154481
-0.77176672 0.3079837 0.6892578 12759207
-0.76542276 0.3084158 0.68902737 12561312
-0.75832623 0.307899 0.68688565 13814736
-0.60305232 0.32228735 0.70977473 10523774
-0.60433584 0.32016027 0.71006042 11707053
-1.1599947 0.31443265 0.69118017 4276853
-1.1559489 0.31577313 0.69560117 12367557
-1.1492201 0.31659061 0.70103139 13617364
-1.1426396 0.31805715 0.70467824 12497593
-0.7829181 0.31681421 0.69303596 13154225
-0.77491856 0.31521523 0.69584006 12824747
-0.76509261 0.31427711 0.69355583 13879238
-0.60732085 0.32880804 0.70268869 11444895
-0.60276955 0.3246958 0.70471215 12037284
-0.59565997 0.32369721 0.70429522 12168615
-0.58664972 0.32372639 0.70523447 12036515
-0.57521689 0.32513061 0.70477492 10654088
-0.56523442 0.32628071 0.70548993 10918289
-0.55542552 0.32530999 0.70726734 10522253
-0.54492599 0.32534674 0.70736384 9277837
-0.53878278 0.32569006 0.70736909 11708062
-0.52541125 0.32669073 0.70709878 10063508
-0.51692855 0.32673228 0.7076593 11313826
-0.50468528 0.32870644 0.70747024 9278870
-0.49693769 0.32689905 0.71006668 12366763
-0.47193736 0.3301515 0.71346921 10461079
-1.1574259 0.32650799 0.6911698 13221830
-1.1548947 0.32486469 0.69452846 12828101
-1.1485234 0.32564792 0.69930619 13683930
-1.1422136 0.32688698 0.70442188 13420260
-0.79273456 0.32638416 0.69127411 13747912
-0.78658503 0.32339332 0.69641829 13682372
-0.77877462 0.32192853 0.70046419 14077907
-0.60885584 0.33233565 0.69900554 11578536
-0.60418272 0.32973263 0.69922698 12168360
-0.59556568 0.32944435 0.6988889 12234152
-0.58578706 0.32853118 0.70053762 11970722
-0.57703662 0.32855105 0.70155054 10916480
-0.56810808 0.33027327 0.70140612 9734536
-0.55258429 0.33129758 0.70107156 9798278
-0.54519188 0.33030039 0.70194119 11839136
-0.5354256 0.33103704 0.70200473 10521994
-0.52449119 0.33162969 0.70313698 9862777
-0.51474893 0.33245051 0.70291334 9207935
-0.50565618 0.33323294 0.70337981 10457982
-0.49648106 0.33291075 0.70431006 9930365
-0.48727468 0.33283418 0.70554394 8945539
-0.47872588 0.33486101 0.70500946 9734023
-0.47146809 0.33599859 0.70803779 9930885
-0.4686965 0.33825931 0.70769429 9994617
-1.8140292 0.3411679 0.6989429 15525870
-1.8082033 0.33933109 0.70141757 14800867
-1.7920549 0.34480622 0.69597244 16580350
-1.7866014 0.34303087 0.69939584 16513531
-1.7751684 0.34359485 0.70067513 16513017
-1.7685592 0.34160838 0.70386124 16580093
-1.158659 0.33157706 0.68993211 13024192
-1.1534553 0.33433011 0.69431442 11969710
-1.1482662 0.33548874 0.69994116 12433096
-1.1412587 0.33384326 0.70600188 12762321
-0.95317966 0.34070349 0.69648701 394277
-0.9450621 0.33838272 0.70045018 328989
-0.94023681 0.34010497 0.70189285 394513
-0.79392934 0.3299695 0.69188899 13814738
-0.79010612 0.32741311 0.69640845 13684181
-0.6180172 0.34050742 0.69651175 13946066
-0.61561769 0.33811474 0.69724238 14012117
-0.60909015 0.33490759 0.6953994 14143447
-0.60072333 0.33260444 0.69401163 14141911
-0.57347023 0.33485338 0.6945352 12234938
-0.56923366 0.33386028 0.69580239 13026002
-0.55176616 0.33705145 0.69516224 11643819
-0.5446142 0.33674917 0.69582844 11773342
-0.53905481 0.33743924 0.6954478 10061176
-0.47998303 0.33906731 0.70106614 9535606
-0.47142068 0.34120721 0.70266235 12104360
-1.8334117 0.34606659 0.69795156 15589863
-1.8252375 0.3450613 0.69542348 15589604
-1.8151964 0.34361878 0.69499439 15458279
-1.8080412 0.34199247 0.69682574 15588579
-1.7945935 0.34649411 0.69296497 16051439
-1.7737604 0.34684896 0.69691771 16448764
-1.7639873 0.34799343 0.69715154 16645886
-1.7552474 0.34690207 0.6998018 16711422
-1.7436866 0.34814939 0.70038766 16711422
-1.7343661 0.35179114 0.69768703 16711422
-1.7281493 0.34798932 0.70123821 16711422
-1.7156013 0.34887549 0.70065445 16711422
-1.7026027 0.34968096 0.7004419 16711422
-1.6911606 0.35004669 0.70057303 16711422
-1.6893243 0.34965274 0.70103204 16711422
-1.6786736 0.35049552 0.70130813 16711422
-1.6642997 0.35170779 0.70085537 16638971
-1.6439154 0.35217446 0.70240384 16711415
-1.638675 0.35568324 0.7026242 16318193
-1.6343304 0.35788456 0.70524716 15186905
-1.153033 0.34534642 0.6957168 12893125
-1.1485572 0.34430555 0.70017982 12762318
-0.9748286 0.35109344 0.69918698 2427710
-0.95192754 0.34283602 0.69396913 394002
-0.94481218 0.34455732 0.69581962 591376
-0.9361636 0.34735283 0.69761121 1051165
-0.92540258 0.35039634 0.70319784 1643053
-0.62133384 0.34400719 0.6939413 14012375
-0.61593729 0.34176904 0.6908772 14143959
-0.60691309 0.33871153 0.68976569 14078168
-0.59510893 0.33841458 0.6878081 13682898
-0.58507156 0.33897117 0.68918353 13354704
-0.57414412 0.339533 0.68975329 12629692
-0.56490612 0.33909976 0.69048524 12235454
-0.5555197 0.34005216 0.6900627 13945808
-0.54114777 0.34153083 0.68962121 11512761
-0.53408265 0.34097743 0.69073308 13290452
-0.52472699 0.34061408 0.69120538 11117228
-0.51573002 0.34151024 0.69084495 12234946
-0.50461316 0.3427856 0.69129306 11841199
-0.49909654 0.34206948 0.69298357 11774653
-1.8350363 0.35349518 0.69425946 15852522
-1.8260614 0.35200316 0.69079596 15720680
-1.8141091 0.35048747 0.68832535 15721195
-1.8043859 0.34851971 0.68939346 15720939
-1.7932205 0.34817418 0.69105905 15655400
-1.7853156 0.34976873 0.69057304 15590123
-1.7735933 0.35173431 0.69120735 15457507
-1.7658038 0.35212171 0.69238758 15128802
-1.7532628 0.3544887 0.69277048 14338777
-1.7448314 0.35247204 0.69590336 14602717
-1.7329782 0.35477117 0.69462091 15327465
-1.7244936 0.35428348 0.69502759 15459819
-1.7123326 0.35504118 0.6949352 16250103
-1.7052088 0.354359 0.69578552 15918836
-1.6951889 0.35587549 0.69517666 16250877
-1.6850232 0.35683423 0.69514275 13872098
-1.674474 0.35596162 0.69601303 12812484
-1.6655042 0.35562542 0.69592637 12346307
-1.6541435 0.35531235 0.69560295 11881640
-1.6459755 0.35462996 0.69777703 11949996
-1.6366239 0.36025015 0.69724745 16119023
-1.6291859 0.36553127 0.69879115 12615626
-1.1551677 0.35507807 0.69452268 12302539
-1.1493099 0.35040188 0.69904673 12893648
-1.1259044 0.3618145 0.7057085 13483706
-1.1116604 0.36269346 0.70420957 13813449
-1.1067766 0.36214685 0.70407397 13944518
-1.1003517 0.36218679 0.70317358 14010824
-1.0316 0.36226505 0.70340002 13878981
-1.0047078 0.36343428 0.70415741 12825776
-0.97482872 0.35599473 0.69638979 4004143
-0.94628197 0.35022107 0.68919653 854299
-0.93380547 0.35231993 0.69318169 3084840
-0.92617023 0.35646972 0.6948728 6627374
-0.91647649 0.35803196 0.6990388 3220809
-0.89334494 0.36044413 0.70066434 5001088
-0.88655084 0.35956419 0.70199776 3816818
-0.87671202 0.36094764 0.70062524 2631014
-0.85995615 0.36220098 0.70286727 1253962
-0.73391879 0.35860661 0.6959278 14144471
-0.61300969 0.34443483 0.68506879 14143959
-0.5910601 0.34458035 0.68374664 11838140
-0.58648425 0.34336624 0.68494248 12104899
-0.56352127 0.34490454 0.6846422 13420236
-0.55428725 0.34466562 0.68568569 13617101
-0.54503465 0.3454124 0.68577534 12826815
-0.53382123 0.34603718 0.68577242 11511993
-0.52466065 0.3459973 0.68584704 12564154
-0.51378798 0.34678909 0.68596166 12168115
-0.5037576 0.34727713 0.6867255 12235703
-0.49366423 0.34780845 0.68732917 12169399
-0.48310208 0.34800678 0.68829638 12434368
-0.47170553 0.35063526 0.68992174 12563641
-0.46205533 0.35359707 0.69289839 12104636
-0.45472264 0.35771886 0.69681251 13946836
-0.45049879 0.36029646 0.69969416 13354701
-1.8316702 0.36053199 0.68871963 15787499
-1.7705598 0.35806197 0.68577957 14669020
-1.7639531 0.35754579 0.68750304 14208731
-1.7566966 0.3570081 0.68962777 13878484
-1.7446648 0.3606492 0.68778408 13480651
-1.7344583 0.35929507 0.68986559 12751301
-1.724916 0.35908589 0.69040823 12087993
-1.7151083 0.35956296 0.69016689 11157932
-1.706244 0.36129364 0.68938494 11619998
-1.6952258 0.36019397 0.6907565 11361696
-1.6865661 0.36117929 0.69034523 12945065
-1.6749752 0.36104634 0.69104165 11752864
-1.668595 0.36093259 0.69068223 11094422
-1.6521019 0.35947499 0.69091511 11886748
-1.6437271 0.36045888 0.69117171 12073120
-1.6345729 0.36314675 0.69374186 15655905
-1.6261468 0.36844295 0.69627082 10901913
-1.6205649 0.37181947 0.69922107 11238303
-1.350597 0.37340462 0.70410782 12693667
-1.3494985 0.37340555 0.70473558 9140877
-1.334506 0.37404829 0.70575672 9925721
-1.1594262 0.36460397 0.68891764 8811665
-1.1551545 0.36321592 0.69285572 9930642
-1.1240203 0.36391798 0.70436817 13681341
-1.1141788 0.3672376 0.69961751 13747137
-1.1045537 0.36787024 0.69771367 14076616
-1.0950179 0.36692044 0.69752342 14339791
-1.0852963 0.36842945 0.69664294 14340302
-1.0760078 0.36780396 0.69762456 14800855
-1.0653633 0.36786112 0.69780511 14537424
-1.0547007 0.36774349 0.69833916 14274252
-1.0450313 0.36782068 0.69794238 14603733
-1.0350865 0.36655211 0.69883364 14076616
-1.0256785 0.3680622 0.69757783 14076357
-1.0156504 0.36827755 0.69858944 13812929
-1.0051793 0.36888376 0.69976455 13550016
